-2.242770004272460938e+01 1.569399952888488770e+00 2.923250007629394531e+01
-2.228129959106445312e+01 1.181300044059753418e+00 2.935059928894042969e+01
-2.219540023803710938e+01 6.493999958038330078e-01 2.957920074462890625e+01
-2.189940071105957031e+01 6.189000010490417480e-01 2.942309951782226562e+01
-2.179080009460449219e+01 1.421000063419342041e-01 2.960960006713867188e+01
-2.161639976501464844e+01 -1.775999963283538818e-01 2.967560005187988281e+01
-2.143700027465820312e+01 -4.851000010967254639e-01 2.973229980468750000e+01
-2.120700073242187500e+01 -6.725000143051147461e-01 2.969669914245605469e+01
-2.106679916381835938e+01 -1.072199940681457520e+00 2.982439994812011719e+01
-2.085180091857910156e+01 -1.294700026512145996e+00 2.981590080261230469e+01
-2.066139984130859375e+01 -1.575299978256225586e+00 2.985210037231445312e+01
-2.055389976501464844e+01 -2.051000118255615234e+00 3.003870010375976562e+01
-2.039310073852539062e+01 -2.400399923324584961e+00 3.012820053100585938e+01
-2.019650077819824219e+01 -2.665299892425537109e+00 3.015259933471679688e+01
-2.003030014038085938e+01 -3.001600027084350586e+00 3.023200035095214844e+01
-1.983880043029785156e+01 -3.277899980545043945e+00 3.026530075073242188e+01
-1.964900016784667969e+01 -3.558300018310546875e+00 3.030179977416992188e+01
-1.940800094604492188e+01 -3.718699932098388672e+00 3.024559974670410156e+01
-1.932880020141601562e+01 -4.256700038909912109e+00 3.048130035400390625e+01
-1.911709976196289062e+01 -4.485099792480468750e+00 3.047780036926269531e+01
-1.889389991760253906e+01 -4.686500072479248047e+00 3.045339965820312500e+01
-1.875790023803710938e+01 -5.090600013732910156e+00 3.058580017089843750e+01
-1.858600044250488281e+01 -5.410900115966796875e+00 3.065360069274902344e+01
-1.845000076293945312e+01 -5.814000129699707031e+00 3.078560066223144531e+01
-1.826989936828613281e+01 -6.114500045776367188e+00 3.083819961547851562e+01
-1.803459930419921875e+01 -6.287399768829345703e+00 3.079190063476562500e+01
-1.782830047607421875e+01 -6.526999950408935547e+00 3.079739952087402344e+01
-1.770630073547363281e+01 -6.960899829864501953e+00 3.095359992980957031e+01
-1.752799987792968750e+01 -7.264800071716308594e+00 3.100900077819824219e+01
-1.731999969482421875e+01 -7.499700069427490234e+00 3.101110076904296875e+01
-1.718759918212890625e+01 -7.908500194549560547e+00 3.114809989929199219e+01
-1.698500061035156250e+01 -8.155400276184082031e+00 3.115950012207031250e+01
-1.679389953613281250e+01 -8.428799629211425781e+00 3.119149971008300781e+01
-1.657530021667480469e+01 -8.638899803161621094e+00 3.117440032958984375e+01
-1.652000045776367188e+01 -9.221799850463867188e+00 3.144739913940429688e+01
-1.628739929199218750e+01 -9.399800300598144531e+00 3.140539932250976562e+01
-1.610740089416503906e+01 -9.697199821472167969e+00 3.145630073547363281e+01
-1.592590045928955078e+01 -9.991100311279296875e+00 3.150469970703125000e+01
-1.571630001068115234e+01 -1.022099971771240234e+01 3.150309944152832031e+01
-1.548830032348632812e+01 -1.040909957885742188e+01 3.146899986267089844e+01
-1.535319995880126953e+01 -1.080749988555908203e+01 3.159900093078613281e+01
-1.520559978485107422e+01 -1.117689990997314453e+01 3.170660018920898438e+01
-1.494079971313476562e+01 -1.128170013427734375e+01 3.160740089416503906e+01
-1.481809997558593750e+01 -1.170689964294433594e+01 3.175860023498535156e+01
-1.463280010223388672e+01 -1.199050045013427734e+01 3.179929924011230469e+01
-1.439700031280517578e+01 -1.216030025482177734e+01 3.175110054016113281e+01
-1.424209976196289062e+01 -1.251189994812011719e+01 3.184510040283203125e+01
-1.410579967498779297e+01 -1.290480041503906250e+01 3.197150039672851562e+01
-1.390810012817382812e+01 -1.315970039367675781e+01 3.198990058898925781e+01
-1.377700042724609375e+01 -1.356330013275146484e+01 3.212500000000000000e+01
-1.354489994049072266e+01 -1.374079990386962891e+01 3.208290100097656250e+01
-1.336779975891113281e+01 -1.404119968414306641e+01 3.213719940185546875e+01
-1.315820026397705078e+01 -1.426869964599609375e+01 3.213430023193359375e+01
-1.308119964599609375e+01 -1.479129981994628906e+01 3.236309814453125000e+01
-1.281849956512451172e+01 -1.490040016174316406e+01 3.226739883422851562e+01
-1.263580036163330078e+01 -1.518719959259033203e+01 3.231129837036132812e+01
-1.243159961700439453e+01 -1.542609977722167969e+01 3.231760025024414062e+01
-1.229119968414306641e+01 -1.580609989166259766e+01 3.243479919433593750e+01
-1.209290027618408203e+01 -1.605780029296875000e+01 3.245130157470703125e+01
-1.192669963836669922e+01 -1.638010025024414062e+01 3.252330017089843750e+01
-1.174860000610351562e+01 -1.667580032348632812e+01 3.257450103759765625e+01
-1.153779983520507812e+01 -1.689920043945312500e+01 3.256880187988281250e+01
-1.134479999542236328e+01 -1.716180038452148438e+01 3.259389877319335938e+01
-1.116149997711181641e+01 -1.744575309753417969e+01 3.263589859008789062e+01
-1.098419952392578125e+01 -1.774235343933105469e+01 3.268799972534179688e+01
-1.077960014343261719e+01 -1.797905349731445312e+01 3.269290161132812500e+01
-1.056909942626953125e+01 -1.820275878906250000e+01 3.268750000000000000e+01
-1.042189884185791016e+01 -1.856455993652343750e+01 3.279130172729492188e+01
-1.023139858245849609e+01 -1.883135986328125000e+01 3.282009887695312500e+01
-1.005256557464599609e+01 -1.912331008911132812e+01 3.286894607543945312e+01
-9.818965911865234375e+00 -1.929611206054687500e+01 3.282344436645507812e+01
-9.708732604980468750e+00 -1.973791122436523438e+01 3.299018096923828125e+01
-9.483832359313964844e+00 -1.992941284179687500e+01 3.295957946777343750e+01
-9.291581153869628906e+00 -2.019178009033203125e+01 3.298505401611328125e+01
-9.092285156250000000e+00 -2.043910408020019531e+01 3.299830627441406250e+01
-8.892185211181640625e+00 -2.068410491943359375e+01 3.301020812988281250e+01
-8.685385704040527344e+00 -2.091450500488281250e+01 3.301050949096679688e+01
-8.493585586547851562e+00 -2.117700386047363281e+01 3.303620910644531250e+01
-8.292959213256835938e+00 -2.142070579528808594e+01 3.304699707031250000e+01
-8.091165542602539062e+00 -2.166145324707031250e+01 3.305559921264648438e+01
-7.887092590332031250e+00 -2.189725303649902344e+01 3.306024932861328125e+01
-7.689800739288330078e+00 -2.214898490905761719e+01 3.307656478881835938e+01
-7.484334945678710938e+00 -2.238199234008789062e+01 3.307153320312500000e+01
-7.290234565734863281e+00 -2.264112663269042969e+01 3.309303283691406250e+01
-7.079483985900878906e+00 -2.286275672912597656e+01 3.308605575561523438e+01
-6.829683780670166016e+00 -2.300119590759277344e+01 3.301275634765625000e+01
-6.574378967285156250e+00 -2.312677192687988281e+01 3.293020629882812500e+01
-6.588078975677490234e+00 -2.382497215270996094e+01 3.330360412597656250e+01
-6.373504638671875000e+00 -2.403202819824218750e+01 3.329146957397460938e+01
-6.213710784912109375e+00 -2.429323196411132812e+01 3.337316894531250000e+01
-5.967404365539550781e+00 -2.451464271545410156e+01 3.330621719360351562e+01
-5.761317729949951172e+00 -2.474463272094726562e+01 3.330682373046875000e+01
-5.525096416473388672e+00 -2.490950965881347656e+01 3.325972747802734375e+01
-5.307870864868164062e+00 -2.511555099487304688e+01 3.324161911010742188e+01
-5.091470718383789062e+00 -2.532180023193359375e+01 3.322462081909179688e+01
-4.866325855255126953e+00 -2.551142883300781250e+01 3.319317626953125000e+01
-4.636825561523437500e+00 -2.569222831726074219e+01 3.315427398681640625e+01
-4.413713455200195312e+00 -2.588916397094726562e+01 3.312677383422851562e+01
-4.238749504089355469e+00 -2.606030464172363281e+01 3.315221023559570312e+01
-3.974103689193725586e+00 -2.629206848144531250e+01 3.308163070678710938e+01
-3.771765947341918945e+00 -2.652852058410644531e+01 3.308782958984375000e+01
-3.549703598022460938e+00 -2.672189903259277344e+01 3.306040573120117188e+01
-3.352825403213500977e+00 -2.679724502563476562e+01 3.302364730834960938e+01
-3.147003412246704102e+00 -2.720089912414550781e+01 3.307670593261718750e+01
-2.904303550720214844e+00 -2.735429763793945312e+01 3.301580429077148438e+01
-2.657428979873657227e+00 -2.749742698669433594e+01 3.294771575927734375e+01
-2.459629058837890625e+00 -2.774412536621093750e+01 3.296171569824218750e+01
-2.198976755142211914e+00 -2.785974502563476562e+01 3.287065887451171875e+01
-1.993276715278625488e+00 -2.809004592895507812e+01 3.287155914306640625e+01
-1.775476813316345215e+00 -2.829514503479003906e+01 3.285205841064453125e+01
-1.537260890007019043e+00 -2.845493316650390625e+01 3.279778289794921875e+01
-1.307600021362304688e+00 -2.863559913635253906e+01 3.275870132446289062e+01
-1.079900026321411133e+00 -2.882040023803710938e+01 3.272290039062500000e+01
-8.392271995544433594e-01 -2.897893714904785156e+01 3.266567611694335938e+01
-6.211755275726318359e-01 -2.918402481079101562e+01 3.264605712890625000e+01
-3.576755523681640625e-01 -2.929562568664550781e+01 3.255105972290039062e+01
-1.259665042161941528e-01 -2.947517585754394531e+01 3.250972366333007812e+01
1.564334928989410400e-01 -2.954847526550292969e+01 3.238372421264648438e+01
3.478335142135620117e-01 -2.980807495117187500e+01 3.240822601318359375e+01
6.265335083007812500e-01 -2.988937568664550781e+01 3.228842544555664062e+01
9.021335244178771973e-01 -2.997727584838867188e+01 3.217402648925781250e+01
1.145233511924743652e+00 -3.013167572021484375e+01 3.211322402954101562e+01
1.351133465766906738e+00 -3.036147499084472656e+01 3.211362457275390625e+01
-2.649514198303222656e+01 9.119299888610839844e+00 2.726331710815429688e+01
-2.628133010864257812e+01 8.886599540710449219e+00 2.726219940185546875e+01
-2.604284858703613281e+01 8.715499877929687500e+00 2.721558570861816406e+01
-2.594094848632812500e+01 8.208100318908691406e+00 2.742238616943359375e+01
-2.584499168395996094e+01 7.595399856567382812e+00 2.757230949401855469e+01
-2.564119911193847656e+01 7.431200027465820312e+00 2.765453910827636719e+01
-2.549793434143066406e+01 7.027699947357177734e+00 2.778184509277343750e+01
-2.530382156372070312e+01 6.748499870300292969e+00 2.781576728820800781e+01
-2.521657371520996094e+01 6.208199977874755859e+00 2.804792022705078125e+01
-2.487828254699707031e+01 6.281899929046630859e+00 2.781223106384277344e+01
-2.477415275573730469e+01 5.783299922943115234e+00 2.801181221008300781e+01
-2.465556907653808594e+01 5.321800231933593750e+00 2.818310165405273438e+01
-2.450921058654785156e+01 4.928400039672851562e+00 2.830137443542480469e+01
-2.432699203491210938e+01 4.622300148010253906e+00 2.835328865051269531e+01
-2.423679161071777344e+01 4.093800067901611328e+00 2.857778930664062500e+01
-2.395979309082031250e+01 4.018099784851074219e+00 2.845628929138183594e+01
-2.381839942932128906e+01 3.614500045776367188e+00 2.858530044555664062e+01
-2.361540031433105469e+01 3.359999895095825195e+00 2.860059928894042969e+01
-2.355870056152343750e+01 2.753499984741210938e+00 2.888559913635253906e+01
-2.325440025329589844e+01 2.743299961090087891e+00 2.871380043029785156e+01
-2.314240074157714844e+01 2.270800113677978516e+00 2.889629936218261719e+01
-2.298859977722167969e+01 1.899500012397766113e+00 2.900139999389648438e+01
-2.282830047607421875e+01 1.543900012969970703e+00 2.909460067749023438e+01
-2.264259910583496094e+01 1.249799966812133789e+00 2.914060020446777344e+01
-2.251320075988769531e+01 8.213000297546386719e-01 2.929000091552734375e+01
-2.225209999084472656e+01 7.077000141143798828e-01 2.919759941101074219e+01
-2.196139907836914062e+01 6.643999814987182617e-01 2.905109977722167969e+01
-2.182690048217773438e+01 2.488999962806701660e-01 2.919059944152832031e+01
-2.177400016784667969e+01 -3.598000109195709229e-01 2.947890090942382812e+01
-2.161820030212402344e+01 -7.232999801635742188e-01 2.957880020141601562e+01
-2.143359947204589844e+01 -1.018000006675720215e+00 2.962579917907714844e+01
-2.127809906005859375e+01 -1.381399989128112793e+00 2.972570037841796875e+01
-2.110149955749511719e+01 -1.694300055503845215e+00 2.978700065612792969e+01
-2.087689971923828125e+01 -1.893800020217895508e+00 2.976079940795898438e+01
-2.076149940490722656e+01 -2.350600004196166992e+00 2.993309974670410156e+01
-2.045339965820312500e+01 -2.353199958801269531e+00 2.975510025024414062e+01
-2.040259933471679688e+01 -2.961100101470947266e+00 3.004430007934570312e+01
-2.020779991149902344e+01 -3.229799985885620117e+00 3.007169914245605469e+01
-1.999900054931640625e+01 -3.465699911117553711e+00 3.007379913330078125e+01
-1.980750083923339844e+01 -3.741899967193603516e+00 3.010709953308105469e+01
-1.962490081787109375e+01 -4.038499832153320312e+00 3.015629959106445312e+01
-1.945439910888671875e+01 -4.363399982452392578e+00 3.022739982604980469e+01
-1.931889915466308594e+01 -4.769299983978271484e+00 3.036129951477050781e+01
-1.909000015258789062e+01 -4.957300186157226562e+00 3.032659912109375000e+01
-1.893930053710937500e+01 -5.327000141143798828e+00 3.043260002136230469e+01
-1.878630065917968750e+01 -5.691299915313720703e+00 3.053450012207031250e+01
-1.855710029602050781e+01 -5.878200054168701172e+00 3.049909973144531250e+01
-1.838809967041015625e+01 -6.204500198364257812e+00 3.057169914245605469e+01
-1.825379943847656250e+01 -6.610799789428710938e+00 3.070649909973144531e+01
-1.807850074768066406e+01 -6.921700000762939453e+00 3.076740074157714844e+01
-1.787929916381835938e+01 -7.177299976348876953e+00 3.078540039062500000e+01
-1.766810035705566406e+01 -7.405099868774414062e+00 3.078190040588378906e+01
-1.759230041503906250e+01 -7.944099903106689453e+00 3.102020072937011719e+01
-1.736269950866699219e+01 -8.129099845886230469e+00 3.098360061645507812e+01
-1.712520027160644531e+01 -8.296099662780761719e+00 3.093289947509765625e+01
-1.705559921264648438e+01 -8.847499847412109375e+00 3.118140029907226562e+01
-1.681999969482421875e+01 -9.018400192260742188e+00 3.113369941711425781e+01
-1.665220069885253906e+01 -9.344300270080566406e+00 3.120689964294433594e+01
-1.642770004272460938e+01 -9.540599822998046875e+00 3.117900085449218750e+01
-1.627639961242675781e+01 -9.903400421142578125e+00 3.128109931945800781e+01
-1.601009941101074219e+01 -1.000430011749267578e+01 3.117900085449218750e+01
-1.593519973754882812e+01 -1.054020023345947266e+01 3.141629981994628906e+01
-1.572749996185302734e+01 -1.077410030364990234e+01 3.141799926757812500e+01
-1.558269977569580078e+01 -1.115009975433349609e+01 3.153070068359375000e+01
-1.537139987945556641e+01 -1.137549972534179688e+01 3.152589988708496094e+01
-1.517450046539306641e+01 -1.163319969177246094e+01 3.154630088806152344e+01
-1.507190036773681641e+01 -1.210350036621093750e+01 3.173310089111328125e+01
-1.482439994812011719e+01 -1.224650001525878906e+01 3.166390037536621094e+01
-1.466440010070800781e+01 -1.258670043945312500e+01 3.174900054931640625e+01
-1.444729995727539062e+01 -1.279829978942871094e+01 3.173349952697753906e+01
-1.427910041809082031e+01 -1.311940002441406250e+01 3.180389976501464844e+01
-1.413160037994384766e+01 -1.348659992218017578e+01 3.191040039062500000e+01
-1.393500041961669922e+01 -1.374349975585937500e+01 3.193059921264648438e+01
-1.371109962463378906e+01 -1.393929958343505859e+01 3.190290069580078125e+01
-1.357999992370605469e+01 -1.434220027923583984e+01 3.203770065307617188e+01
-1.334920024871826172e+01 -1.452229976654052734e+01 3.199769973754882812e+01
-1.315390014648437500e+01 -1.478139972686767578e+01 3.201979827880859375e+01
-1.303069972991943359e+01 -1.520069980621337891e+01 3.216780090332031250e+01
-1.283139991760253906e+01 -1.545030021667480469e+01 3.218249893188476562e+01
-1.264789962768554688e+01 -1.573499965667724609e+01 3.222489929199218750e+01
-1.245839977264404297e+01 -1.600620079040527344e+01 3.225669860839843750e+01
-1.224380016326904297e+01 -1.622179985046386719e+01 3.224470138549804688e+01
-1.209350013732910156e+01 -1.657889938354492188e+01 3.234429931640625000e+01
-1.190559959411621094e+01 -1.685289955139160156e+01 3.237850189208984375e+01
-1.168360042572021484e+01 -1.705179977416992188e+01 3.235350036621093750e+01
-1.152449989318847656e+01 -1.738890075683593750e+01 3.243750000000000000e+01
-1.133440017700195312e+01 -1.765775299072265625e+01 3.246770095825195312e+01
-1.114190006256103516e+01 -1.792085266113281250e+01 3.249340057373046875e+01
-1.095547389984130859e+01 -1.819837188720703125e+01 3.252978897094726562e+01
-1.076397418975830078e+01 -1.846337127685546875e+01 3.255708694458007812e+01
-1.058847427368164062e+01 -1.876307106018066406e+01 3.261198806762695312e+01
-1.037196826934814453e+01 -1.897322463989257812e+01 3.259598541259765625e+01
-1.019104099273681641e+01 -1.926052474975585938e+01 3.264133453369140625e+01
-1.004414081573486328e+01 -1.962192535400390625e+01 3.274513244628906250e+01
-9.867332458496093750e+00 -1.991801452636718750e+01 3.279737854003906250e+01
-9.630632400512695312e+00 -2.008381271362304688e+01 3.274647903442382812e+01
-9.446879386901855469e+00 -2.036437988281250000e+01 3.278645324707031250e+01
-9.248485565185546875e+00 -2.061380386352539062e+01 3.280140686035156250e+01
-9.053785324096679688e+00 -2.087020492553710938e+01 3.282240676879882812e+01
-8.844885826110839844e+00 -2.109590339660644531e+01 3.281900787353515625e+01
-8.644259452819824219e+00 -2.133960533142089844e+01 3.282969665527343750e+01
-8.446660041809082031e+00 -2.158940696716308594e+01 3.284549713134765625e+01
-8.262249946594238281e+00 -2.179395866394042969e+01 3.287239074707031250e+01
-8.049592971801757812e+00 -2.208495330810546875e+01 3.287385177612304688e+01
-7.844100952148437500e+00 -2.231908416748046875e+01 3.287258529663085938e+01
-7.631734848022460938e+00 -2.253680610656738281e+01 3.285953140258789062e+01
-7.433134555816650391e+00 -2.278652763366699219e+01 3.287323379516601562e+01
-7.209334850311279297e+00 -2.298037338256835938e+01 3.284403228759765625e+01
-6.954783916473388672e+00 -2.310869598388671875e+01 3.276275634765625000e+01
-6.768778800964355469e+00 -2.338167190551757812e+01 3.279770660400390625e+01
-6.801678657531738281e+00 -2.402862930297851562e+01 3.320420455932617188e+01
-6.531642436981201172e+00 -2.413310432434082031e+01 3.309661483764648438e+01
-6.298604488372802734e+00 -2.439194107055664062e+01 3.305244445800781250e+01
-6.086104393005371094e+00 -2.460864257812500000e+01 3.304591751098632812e+01
-5.883617877960205078e+00 -2.484613227844238281e+01 3.305232620239257812e+01
-5.660996437072753906e+00 -2.503990936279296875e+01 3.302832794189453125e+01
-5.447970867156982422e+00 -2.525547409057617188e+01 3.301721954345703125e+01
-5.232122898101806641e+00 -2.546298217773437500e+01 3.300147247314453125e+01
-5.004925727844238281e+00 -2.564752960205078125e+01 3.296637344360351562e+01
-4.756725788116455078e+00 -2.578892898559570312e+01 3.289587402343750000e+01
-4.549913406372070312e+00 -2.601996421813964844e+01 3.289567184448242188e+01
-4.322242259979248047e+00 -2.620513534545898438e+01 3.286004638671875000e+01
-4.116503238677978516e+00 -2.643586921691894531e+01 3.286103057861328125e+01
-3.900027275085449219e+00 -2.656381416320800781e+01 3.282362365722656250e+01
-3.641072034835815430e+00 -2.676046562194824219e+01 3.275468063354492188e+01
-3.437903404235839844e+00 -2.699479866027832031e+01 3.275930404663085938e+01
-3.260703563690185547e+00 -2.728489875793457031e+01 3.280810546875000000e+01
-2.989503622055053711e+00 -2.737879753112792969e+01 3.269930267333984375e+01
-2.759722948074340820e+00 -2.755863952636718750e+01 3.266004180908203125e+01
-2.584728956222534180e+00 -2.785162544250488281e+01 3.271201324462890625e+01
-2.354829072952270508e+00 -2.803172683715820312e+01 3.267241287231445312e+01
-2.076176643371582031e+00 -2.811014556884765625e+01 3.255136108398437500e+01
-1.872976779937744141e+00 -2.834564590454101562e+01 3.255635833740234375e+01
-1.615390062332153320e+00 -2.846610450744628906e+01 3.247006225585937500e+01
-1.721755564212799072e-01 -2.941862487792968750e+01 3.212835693359375000e+01
1.181334927678108215e-01 -2.947857475280761719e+01 3.199022293090820312e+01
3.578335046768188477e-01 -2.963957595825195312e+01 3.193482398986816406e+01
4.873335063457489014e-01 -3.002547454833984375e+01 3.206152343750000000e+01
-2.651368522644042969e+01 8.518500328063964844e+00 2.720579147338867188e+01
-2.642085456848144531e+01 7.988900184631347656e+00 2.742864608764648438e+01
-2.632405662536621094e+01 7.457799911499023438e+00 2.762873840332031250e+01
-2.601585578918457031e+01 7.470900058746337891e+00 2.746464729309082031e+01
-2.604446983337402344e+01 6.622399806976318359e+00 2.772026062011718750e+01
-2.585760879516601562e+01 6.343200206756591797e+00 2.771049690246582031e+01
-2.550143241882324219e+01 6.466400146484375000e+00 2.769560050964355469e+01
-2.511592292785644531e+01 5.151299953460693359e+00 2.815657997131347656e+01
-2.495861053466796875e+01 4.784699916839599609e+00 2.825417709350585938e+01
-2.481217765808105469e+01 4.391699790954589844e+00 2.837175559997558594e+01
-2.454129219055175781e+01 4.301599979400634766e+00 2.826088905334472656e+01
-2.439009284973144531e+01 3.921200037002563477e+00 2.837248802185058594e+01
-2.414799308776855469e+01 3.761300086975097656e+00 2.831538963317871094e+01
-2.409799957275390625e+01 3.136800050735473633e+00 2.861380004882812500e+01
-2.389870071411132812e+01 2.873899936676025391e+00 2.863559913635253906e+01
-2.371240043640136719e+01 2.579799890518188477e+00 2.868140029907226562e+01
-2.353109931945800781e+01 2.274100065231323242e+00 2.873620033264160156e+01
-2.336700057983398438e+01 1.927099943161010742e+00 2.882270050048828125e+01
-2.319759941101074219e+01 1.593400001525878906e+00 2.889920043945312500e+01
-2.294829940795898438e+01 1.451500058174133301e+00 2.882850074768066406e+01
-2.281780052185058594e+01 1.025300025939941406e+00 2.897610092163085938e+01
-2.263120079040527344e+01 7.336000204086303711e-01 2.902039909362792969e+01
-2.255439949035644531e+01 1.799000054597854614e-01 2.926619911193847656e+01
-2.229350090026855469e+01 6.629999727010726929e-02 2.917390060424804688e+01
-2.217079925537109375e+01 -3.765999972820281982e-01 2.933480072021484375e+01
-2.197710037231445312e+01 -6.500999927520751953e-01 2.936549949645996094e+01
-2.186300086975097656e+01 -1.112300038337707520e+00 2.954150009155273438e+01
-2.167950057983398438e+01 -1.409299969673156738e+00 2.959049987792968750e+01
-2.141519927978515625e+01 -1.514899969100952148e+00 2.949189949035644531e+01
-2.120520019531250000e+01 -1.748800039291381836e+00 2.949230003356933594e+01
-2.110169982910156250e+01 -2.234200000762939453e+00 2.968670082092285156e+01
-2.088699913024902344e+01 -2.456899881362915039e+00 2.967849922180175781e+01
-2.068939971923828125e+01 -2.719399929046630859e+00 2.970109939575195312e+01
-2.053330039978027344e+01 -3.079499959945678711e+00 2.979910087585449219e+01
-2.040220069885253906e+01 -3.497999906539916992e+00 2.994239997863769531e+01
-2.016469955444335938e+01 -3.666300058364868164e+00 2.989240074157714844e+01
-1.998299980163574219e+01 -3.965199947357177734e+00 2.994330024719238281e+01
-1.991180038452148438e+01 -4.522099971771240234e+00 3.019400024414062500e+01
-1.971520042419433594e+01 -4.785600185394287109e+00 3.021780014038085938e+01
-1.954240036010742188e+01 -5.104199886322021484e+00 3.028420066833496094e+01
-1.934560012817382812e+01 -5.366600036621093750e+00 3.030730056762695312e+01
-1.914559936523437500e+01 -5.621699810028076172e+00 3.032460021972656250e+01
-1.894860076904296875e+01 -5.883100032806396484e+00 3.034690093994140625e+01
-1.877540016174316406e+01 -6.199900150299072266e+00 3.041230010986328125e+01
-1.860630035400390625e+01 -6.525700092315673828e+00 3.048469924926757812e+01
-1.844510078430175781e+01 -6.869599819183349609e+00 3.057130050659179688e+01
-1.827370071411132812e+01 -7.189400196075439453e+00 3.063920021057128906e+01
-1.807349967956542969e+01 -7.442500114440917969e+00 3.065539932250976562e+01
-1.783180046081542969e+01 -7.599800109863281250e+00 3.059709930419921875e+01
-1.772929954528808594e+01 -8.077599525451660156e+00 3.078809928894042969e+01
-1.754380035400390625e+01 -8.363800048828125000e+00 3.083009910583496094e+01
-1.736039924621582031e+01 -8.654600143432617188e+00 3.087579917907714844e+01
-1.720940017700195312e+01 -9.019200325012207031e+00 3.097909927368164062e+01
-1.696599960327148438e+01 -9.172499656677246094e+00 3.091780090332031250e+01
-1.677879905700683594e+01 -9.453900337219238281e+00 3.095630073547363281e+01
-1.658639907836914062e+01 -9.723199844360351562e+00 3.098550033569335938e+01
-1.647839927673339844e+01 -1.018480014801025391e+01 3.116480064392089844e+01
-1.625460052490234375e+01 -1.038220024108886719e+01 3.113789939880371094e+01
-1.602339935302734375e+01 -1.056270027160644531e+01 3.109790039062500000e+01
-1.591849994659423828e+01 -1.102989959716796875e+01 3.128190040588378906e+01
-1.578400039672851562e+01 -1.142910003662109375e+01 3.141300010681152344e+01
-1.557439994812011719e+01 -1.165820026397705078e+01 3.141110038757324219e+01
-1.532759952545166016e+01 -1.180280017852783203e+01 3.134309959411621094e+01
-1.523110008239746094e+01 -1.228689956665039062e+01 3.154080009460449219e+01
-1.501529979705810547e+01 -1.250129985809326172e+01 3.152759933471679688e+01
-1.486670017242431641e+01 -1.286709976196289062e+01 3.163290023803710938e+01
-1.462580013275146484e+01 -1.302470016479492188e+01 3.157509994506835938e+01
-1.443529987335205078e+01 -1.329580020904541016e+01 3.160639953613281250e+01
-1.432409954071044922e+01 -1.374419975280761719e+01 3.177680015563964844e+01
-1.409109973907470703e+01 -1.391959953308105469e+01 3.173310089111328125e+01
-1.389389991760253906e+01 -1.417490005493164062e+01 3.175209999084472656e+01
-1.370699977874755859e+01 -1.445300006866455078e+01 3.178910064697265625e+01
-1.355580043792724609e+01 -1.481060028076171875e+01 3.188859939575195312e+01
-1.335039997100830078e+01 -1.504699993133544922e+01 3.189290046691894531e+01
-1.316679954528808594e+01 -1.533189964294433594e+01 3.193540000915527344e+01
-1.298029994964599609e+01 -1.560999965667724609e+01 3.197260093688964844e+01
-1.284300041198730469e+01 -1.599709987640380859e+01 3.209569931030273438e+01
-1.259850025177001953e+01 -1.614620018005371094e+01 3.203139877319335938e+01
-1.244149971008300781e+01 -1.648909950256347656e+01 3.211980056762695312e+01
-1.225479984283447266e+01 -1.676580047607421875e+01 3.215610122680664062e+01
-1.210009956359863281e+01 -1.711300086975097656e+01 3.224810028076171875e+01
-1.186950016021728516e+01 -1.729269981384277344e+01 3.220800018310546875e+01
-1.170860004425048828e+01 -1.762585258483886719e+01 3.228889846801757812e+01
-1.152089977264404297e+01 -1.789975166320800781e+01 3.232320022583007812e+01
-1.133897399902343750e+01 -1.818687057495117188e+01 3.236728668212890625e+01
-1.113487434387207031e+01 -1.842427062988281250e+01 3.237278747558593750e+01
-1.095096969604492188e+01 -1.870580863952636719e+01 3.241328430175781250e+01
-1.075186920166015625e+01 -1.895380973815917969e+01 3.242738342285156250e+01
-1.053316402435302734e+01 -1.915926361083984375e+01 3.240768051147460938e+01
-1.037913608551025391e+01 -1.950506210327148438e+01 3.249933242797851562e+01
-1.020863628387451172e+01 -1.981486320495605469e+01 3.256253433227539062e+01
-1.000580310821533203e+01 -2.005536460876464844e+01 3.257006835937500000e+01
-9.804032325744628906e+00 -2.029571151733398438e+01 3.257897949218750000e+01
-9.625926017761230469e+00 -2.058218002319335938e+01 3.262822723388671875e+01
-9.421284675598144531e+00 -2.082431030273437500e+01 3.263290786743164062e+01
-9.194185256958007812e+00 -2.101050376892089844e+01 3.259830856323242188e+01
-9.011899948120117188e+00 -2.118457221984863281e+01 3.262422180175781250e+01
-8.797359466552734375e+00 -2.150740623474121094e+01 3.262749481201171875e+01
-8.608119964599609375e+00 -2.174193572998046875e+01 3.265119171142578125e+01
-8.396492958068847656e+00 -2.199475288391113281e+01 3.264945220947265625e+01
-8.192592620849609375e+00 -2.223065376281738281e+01 3.265067291259765625e+01
-7.986413478851318359e+00 -2.246337699890136719e+01 3.264857101440429688e+01
-7.766834735870361328e+00 -2.266530609130859375e+01 3.262623214721679688e+01
-7.564334869384765625e+00 -2.290702629089355469e+01 3.263363265991210938e+01
-7.342334747314453125e+00 -2.310467338562011719e+01 3.260753250122070312e+01
-7.086682796478271484e+00 -2.322986412048339844e+01 3.252415466308593750e+01
-6.960716724395751953e+00 -2.430171966552734375e+01 3.301260757446289062e+01
-6.656278133392333984e+00 -2.432574272155761719e+01 3.284712982177734375e+01
-6.447804450988769531e+00 -2.455064201354980469e+01 3.284364318847656250e+01
-6.216404438018798828e+00 -2.472714233398437500e+01 3.280134201049804688e+01
-5.990092277526855469e+00 -2.491353797912597656e+01 3.277115249633789062e+01
-5.777990341186523438e+00 -2.513162231445312500e+01 3.276173400878906250e+01
-5.565061092376708984e+00 -2.534535217285156250e+01 3.275424575805664062e+01
-5.330325603485107422e+00 -2.551440620422363281e+01 3.270637512207031250e+01
-5.106770992279052734e+00 -2.564409828186035156e+01 3.265739059448242188e+01
-4.890925884246826172e+00 -2.591542816162109375e+01 3.266137313842773438e+01
-4.666312694549560547e+00 -2.610936927795410156e+01 3.263147354125976562e+01
-4.424313545227050781e+00 -2.626386451721191406e+01 3.257147216796875000e+01
-4.204303264617919922e+00 -2.646526908874511719e+01 3.254862976074218750e+01
-3.954603672027587891e+00 -2.660386848449707031e+01 3.247573089599609375e+01
-3.750865936279296875e+00 -2.683752059936523438e+01 3.247962951660156250e+01
-3.612803459167480469e+00 -2.720639801025390625e+01 3.259330368041992188e+01
-3.320203542709350586e+00 -2.725559806823730469e+01 3.244840240478515625e+01
-3.076303482055664062e+00 -2.740659904479980469e+01 3.238540267944335938e+01
-2.939223051071166992e+00 -2.777913856506347656e+01 3.250123977661132812e+01
-2.722329139709472656e+00 -2.798492622375488281e+01 3.248301315307617188e+01
-2.669778823852539062e+01 8.245499610900878906e+00 2.708034515380859375e+01
-2.662258911132812500e+01 7.696100234985351562e+00 2.731627655029296875e+01
-2.650587463378906250e+01 7.225800037384033203e+00 2.749564361572265625e+01
-2.617327499389648438e+01 7.287300109863281250e+00 2.726944351196289062e+01
-2.614864730834960938e+01 6.591599941253662109e+00 2.762065124511718750e+01
-2.584138870239257812e+01 6.591199874877929688e+00 2.744238281250000000e+01
-2.576904296875000000e+01 6.013700008392333984e+00 2.770328903198242188e+01
-2.562354278564453125e+01 5.616899967193603516e+00 2.782699012756347656e+01
-2.539513778686523438e+01 5.421999931335449219e+00 2.779327392578125000e+01
-2.527279663085937500e+01 4.969099998474121094e+00 2.796220397949218750e+01
-2.508187103271484375e+01 4.684400081634521484e+00 2.799571037292480469e+01
-2.497185134887695312e+01 4.203199863433837891e+00 2.818172454833984375e+01
-2.472573471069335938e+01 4.052999973297119141e+00 2.811648559570312500e+01
-2.445809173583984375e+01 3.955300092697143555e+00 2.800898933410644531e+01
-2.453259277343750000e+01 3.028500080108642578e+00 2.853918838500976562e+01
-2.418079185485839844e+01 3.134599924087524414e+00 2.827848815917968750e+01
-2.408130073547363281e+01 2.630500078201293945e+00 2.848500061035156250e+01
-2.391530036926269531e+01 2.287699937820434570e+00 2.856830024719238281e+01
-2.368600082397460938e+01 2.097700119018554688e+00 2.853440093994140625e+01
-2.352319908142089844e+01 1.747900009155273438e+00 2.862319946289062500e+01
-2.331590080261230469e+01 1.505100011825561523e+00 2.862989997863769531e+01
-2.328779983520507812e+01 8.327999711036682129e-01 2.896669960021972656e+01
-2.309849929809570312e+01 5.479000210762023926e-01 2.900600051879882812e+01
-2.282620048522949219e+01 4.614999890327453613e-01 2.889259910583496094e+01
-2.266869926452636719e+01 1.009000018239021301e-01 2.899010086059570312e+01
-2.251989936828613281e+01 -2.802000045776367188e-01 2.910359954833984375e+01
-2.231100082397460938e+01 -5.175999999046325684e-01 2.910650062561035156e+01
-2.214430046081542969e+01 -8.553000092506408691e-01 2.918670082092285156e+01
-2.194750022888183594e+01 -1.120900034904479980e+00 2.921150016784667969e+01
-2.173670005798339844e+01 -1.353399991989135742e+00 2.921069908142089844e+01
-2.165379905700683594e+01 -1.888599991798400879e+00 2.944350051879882812e+01
-2.143619918823242188e+01 -2.104399919509887695e+00 2.943000030517578125e+01
-2.123469924926757812e+01 -2.358299970626831055e+00 2.944580078125000000e+01
-2.102210044860839844e+01 -2.585700035095214844e+00 2.944140052795410156e+01
-2.097030067443847656e+01 -3.191499948501586914e+00 2.972929954528808594e+01
-2.086499977111816406e+01 -3.670799970626831055e+00 2.991970062255859375e+01
-2.063800048828125000e+01 -3.863199949264526367e+00 2.988839912414550781e+01
-2.036140060424804688e+01 -3.939500093460083008e+00 2.976720046997070312e+01
-2.021820068359375000e+01 -4.328499794006347656e+00 2.988800048828125000e+01
-1.996990013122558594e+01 -4.471199989318847656e+00 2.981819915771484375e+01
-1.992779922485351562e+01 -5.095399856567382812e+00 3.012140083312988281e+01
-1.964830017089843750e+01 -5.165100097656250000e+00 2.999510002136230469e+01
-1.947229957580566406e+01 -5.476099967956542969e+00 3.005590057373046875e+01
-1.930249977111816406e+01 -5.801300048828125000e+00 3.012770080566406250e+01
-1.913279914855957031e+01 -6.126299858093261719e+00 3.019939994812011719e+01
-1.901390075683593750e+01 -6.568600177764892578e+00 3.036230087280273438e+01
-1.882489967346191406e+01 -6.848000049591064453e+00 3.039879989624023438e+01
-1.866329956054687500e+01 -7.190599918365478516e+00 3.048460006713867188e+01
-1.849180030822753906e+01 -7.510000228881835938e+00 3.055229949951171875e+01
-1.821089935302734375e+01 -7.576799869537353516e+00 3.042359924316406250e+01
-1.802350044250488281e+01 -7.859200000762939453e+00 3.046269989013671875e+01
-1.788870048522949219e+01 -8.262499809265136719e+00 3.059589958190917969e+01
-1.773600006103515625e+01 -8.623800277709960938e+00 3.069659996032714844e+01
-1.756010055541992188e+01 -8.931699752807617188e+00 3.075569915771484375e+01
-1.733970069885253906e+01 -9.137299537658691406e+00 3.073520088195800781e+01
-1.714299964904785156e+01 -9.397299766540527344e+00 3.075709915161132812e+01
-1.698920059204101562e+01 -9.754799842834472656e+00 3.085499954223632812e+01
-1.673719978332519531e+01 -9.887999534606933594e+00 3.077809906005859375e+01
-1.662910079956054688e+01 -1.034920024871826172e+01 3.095730018615722656e+01
-1.646080017089843750e+01 -1.067290019989013672e+01 3.102919960021972656e+01
-1.625359916687011719e+01 -1.090769958496093750e+01 3.103160095214843750e+01
-1.605690002441406250e+01 -1.116619968414306641e+01 3.105270004272460938e+01
-1.585830020904541016e+01 -1.142049980163574219e+01 3.107040023803710938e+01
-1.571570014953613281e+01 -1.180119991302490234e+01 3.118720054626464844e+01
-1.556449985504150391e+01 -1.216189956665039062e+01 3.128840065002441406e+01
-1.538679981231689453e+01 -1.246249961853027344e+01 3.134259986877441406e+01
-1.516250038146972656e+01 -1.265779972076416016e+01 3.131439971923828125e+01
-1.496630001068115234e+01 -1.291600036621093750e+01 3.133559989929199219e+01
-1.480659961700439453e+01 -1.325640010833740234e+01 3.142119979858398438e+01
-1.462600040435791016e+01 -1.354959964752197266e+01 3.146980094909667969e+01
-1.448110008239746094e+01 -1.392259979248046875e+01 3.158119964599609375e+01
-1.425730037689208984e+01 -1.411830043792724609e+01 3.155349922180175781e+01
-1.409729957580566406e+01 -1.445660018920898438e+01 3.163780021667480469e+01
-1.392399978637695312e+01 -1.476500034332275391e+01 3.169869995117187500e+01
-1.373869991302490234e+01 -1.504609966278076172e+01 3.173819923400878906e+01
-1.354930019378662109e+01 -1.531809997558593750e+01 3.177059936523437500e+01
-1.335910034179687500e+01 -1.558800029754638672e+01 3.180139923095703125e+01
-1.321049976348876953e+01 -1.595020008087158203e+01 3.190489959716796875e+01
-1.298050022125244141e+01 -1.613150024414062500e+01 3.186599922180175781e+01
-1.277910041809082031e+01 -1.637610054016113281e+01 3.187700080871582031e+01
-1.265009975433349609e+01 -1.678059959411621094e+01 3.201409912109375000e+01
-1.243410015106201172e+01 -1.699239921569824219e+01 3.199930000305175781e+01
-1.225981426239013672e+01 -1.729579925537109375e+01 3.205723190307617188e+01
-1.210781478881835938e+01 -1.764839935302734375e+01 3.215373229980468750e+01
-1.188231468200683594e+01 -1.783915519714355469e+01 3.212223052978515625e+01
-1.169219017028808594e+01 -1.810866737365722656e+01 3.215242004394531250e+01
-1.151198863983154297e+01 -1.839857292175292969e+01 3.219952011108398438e+01
-1.131198406219482422e+01 -1.864481163024902344e+01 3.221211624145507812e+01
-1.108796977996826172e+01 -1.883900833129882812e+01 3.218318557739257812e+01
-1.093466949462890625e+01 -1.917180633544921875e+01 3.227658462524414062e+01
-1.074776363372802734e+01 -1.946156311035156250e+01 3.231167984008789062e+01
-1.055606365203857422e+01 -1.972536277770996094e+01 3.233838272094726562e+01
-1.036303615570068359e+01 -1.998586273193359375e+01 3.236263275146484375e+01
-1.016120243072509766e+01 -2.022836303710937500e+01 3.237186813354492188e+01
-9.955327987670898438e+00 -2.045995140075683594e+01 3.237387847900390625e+01
-9.761179924011230469e+00 -2.071778106689453125e+01 3.239595413208007812e+01
-9.557984352111816406e+00 -2.095671081542968750e+01 3.240250778198242188e+01
-9.367185592651367188e+00 -2.122140502929687500e+01 3.243020629882812500e+01
-9.159385681152343750e+00 -2.144920349121093750e+01 3.242870712280273438e+01
-8.946459770202636719e+00 -2.166640663146972656e+01 3.241839599609375000e+01
-8.737887382507324219e+00 -2.189260673522949219e+01 3.241544723510742188e+01
-8.525793075561523438e+00 -2.211105346679687500e+01 3.240635299682617188e+01
-8.318392753601074219e+00 -2.233945274353027344e+01 3.240177154541015625e+01
-8.113793373107910156e+00 -2.257405281066894531e+01 3.240205383300781250e+01
-7.905596256256103516e+00 -2.277764320373535156e+01 3.239645385742187500e+01
-7.694934844970703125e+00 -2.302428627014160156e+01 3.239293289184570312e+01
-7.453234672546386719e+00 -2.318167304992675781e+01 3.233323287963867188e+01
-7.230183124542236328e+00 -2.337636375427246094e+01 3.230525588989257812e+01
-6.734278678894042969e+00 -2.365997123718261719e+01 3.251688385009765625e+01
-6.837378501892089844e+00 -2.455234146118164062e+01 3.269263076782226562e+01
-6.569204807281494141e+00 -2.465024185180664062e+01 3.258764266967773438e+01
-6.331304550170898438e+00 -2.481304168701171875e+01 3.253434371948242188e+01
-6.128217697143554688e+00 -2.504953384399414062e+01 3.254362487792968750e+01
-5.896390438079833984e+00 -2.522341346740722656e+01 3.250053405761718750e+01
-5.678061008453369141e+00 -2.542735290527343750e+01 3.248404693603515625e+01
-5.480862617492675781e+00 -2.556533050537109375e+01 3.246508026123046875e+01
-5.295660495758056641e+00 -2.571326065063476562e+01 3.245780944824218750e+01
-4.973436832427978516e+00 -2.593515396118164062e+01 3.234024810791015625e+01
-4.749912738800048828e+00 -2.612957000732421875e+01 3.231167221069335938e+01
-4.559612751007080078e+00 -2.639277076721191406e+01 3.233877182006835938e+01
-4.319442272186279297e+00 -2.655153465270996094e+01 3.228184509277343750e+01
-3.981903553009033203e+00 -2.650666809082031250e+01 3.206132888793945312e+01
-3.859003543853759766e+00 -2.691076850891113281e+01 3.220183181762695312e+01
-2.690955543518066406e+01 7.952099800109863281e+00 2.696004676818847656e+01
-2.681357383728027344e+01 7.429699897766113281e+00 2.718174362182617188e+01
-2.653517341613769531e+01 7.357999801635742188e+00 2.705704498291015625e+01
-2.659404945373535156e+01 6.456299781799316406e+00 2.756574440002441406e+01
-2.626905059814453125e+01 6.499499797821044922e+00 2.735334587097167969e+01
-2.622825813293457031e+01 5.844799995422363281e+00 2.767247962951660156e+01
-2.605131721496582031e+01 5.524499893188476562e+00 2.774011039733886719e+01
-2.582899665832519531e+01 5.314899921417236328e+00 2.771930503845214844e+01
-2.564359664916992188e+01 5.016300201416015625e+00 2.776810455322265625e+01
-2.543789672851562500e+01 4.767399787902832031e+00 2.777900505065917969e+01
-2.534088516235351562e+01 4.253699779510498047e+00 2.798775482177734375e+01
-2.515015029907226562e+01 3.969300031661987305e+00 2.802342414855957031e+01
-2.486285209655761719e+01 3.919600009918212891e+00 2.788192367553710938e+01
-2.473295021057128906e+01 3.487600088119506836e+00 2.803211975097656250e+01
-2.466529273986816406e+01 2.905800104141235352e+00 2.829618835449218750e+01
-2.440009307861328125e+01 2.802400112152099609e+00 2.819588851928710938e+01
-2.426129913330078125e+01 2.393599987030029297e+00 2.832959938049316406e+01
-2.404899978637695312e+01 2.162600040435791016e+00 2.832719993591308594e+01
-2.386610031127929688e+01 1.860599994659423828e+00 2.837929916381835938e+01
-2.364039993286132812e+01 1.662099957466125488e+00 2.835199928283691406e+01
-2.347019958496093750e+01 1.330199956893920898e+00 2.842720031738281250e+01
-2.340570068359375000e+01 7.452999949455261230e-01 2.869709968566894531e+01
-2.326759910583496094e+01 3.375999927520751953e-01 2.883079910278320312e+01
-2.307299995422363281e+01 6.570000201463699341e-02 2.886030006408691406e+01
-2.287179946899414062e+01 -1.904000043869018555e-01 2.887750053405761719e+01
-2.268079948425292969e+01 -4.706000089645385742e-01 2.891340065002441406e+01
-2.248159980773925781e+01 -7.310000061988830566e-01 2.893409919738769531e+01
-2.229140090942382812e+01 -1.012500047683715820e+00 2.897109985351562500e+01
-2.216670036315917969e+01 -1.449599981307983398e+00 2.912820053100585938e+01
-2.199349975585937500e+01 -1.771000027656555176e+00 2.919610023498535156e+01
-2.175020027160644531e+01 -1.925799965858459473e+00 2.913549995422363281e+01
-2.157410049438476562e+01 -2.239900112152099609e+00 2.919790077209472656e+01
-2.140299987792968750e+01 -2.565299987792968750e+00 2.926910018920898438e+01
-2.130430030822753906e+01 -3.061399936676025391e+00 2.947240066528320312e+01
-2.115940093994140625e+01 -3.447799921035766602e+00 2.959099960327148438e+01
-2.090690040588378906e+01 -3.580499887466430664e+00 2.951339912414550781e+01
-2.076049995422363281e+01 -3.962599992752075195e+00 2.962890052795410156e+01
-2.063899993896484375e+01 -4.402699947357177734e+00 2.978940010070800781e+01
-2.045280075073242188e+01 -4.690499782562255859e+00 2.983200073242187500e+01
-2.016519927978515625e+01 -4.740799903869628906e+00 2.969070053100585938e+01
-2.008930015563964844e+01 -5.286099910736083984e+00 2.993300056457519531e+01
-1.987109947204589844e+01 -5.498600006103515625e+00 2.991740036010742188e+01
-1.974659919738769531e+01 -5.929200172424316406e+00 3.007110023498535156e+01
-1.945269966125488281e+01 -5.965199947357177734e+00 2.991850090026855469e+01
-1.936980056762695312e+01 -6.491899967193603516e+00 3.014710044860839844e+01
-1.915439987182617188e+01 -6.710199832916259766e+00 3.013610076904296875e+01
-1.897990036010742188e+01 -7.023099899291992188e+00 3.019879913330078125e+01
-1.880240058898925781e+01 -7.329100131988525391e+00 3.025609970092773438e+01
-1.863179969787597656e+01 -7.650300025939941406e+00 3.032539939880371094e+01
-1.845100021362304688e+01 -7.948100090026855469e+00 3.037649917602539062e+01
-1.827890014648437500e+01 -8.265500068664550781e+00 3.044289970397949219e+01
-1.810149955749511719e+01 -8.570199966430664062e+00 3.049959945678710938e+01
-1.783119964599609375e+01 -8.661199569702148438e+00 3.038960075378417969e+01
-1.770960044860839844e+01 -9.093799591064453125e+00 3.054610061645507812e+01
-1.751469993591308594e+01 -9.357799530029296875e+00 3.057110023498535156e+01
-1.728720092773437500e+01 -9.547100067138671875e+00 3.053790092468261719e+01
-1.716290092468261719e+01 -9.972100257873535156e+00 3.068880081176757812e+01
-1.700230026245117188e+01 -1.031359958648681641e+01 3.077449989318847656e+01
-1.682620048522949219e+01 -1.061970043182373047e+01 3.083270072937011719e+01
-1.652529907226562500e+01 -1.064130020141601562e+01 3.066850090026855469e+01
-1.644109916687011719e+01 -1.115590000152587891e+01 3.088979911804199219e+01
-1.626689910888671875e+01 -1.146539974212646484e+01 3.095079994201660156e+01
-1.611669921875000000e+01 -1.182900047302246094e+01 3.105430030822753906e+01
-1.592689990997314453e+01 -1.210239982604980469e+01 3.108729934692382812e+01
-1.568750000000000000e+01 -1.226360034942626953e+01 3.103230094909667969e+01
-1.556089973449707031e+01 -1.267949962615966797e+01 3.117700004577636719e+01
-1.533150005340576172e+01 -1.286299991607666016e+01 3.113960075378417969e+01
-1.519470024108886719e+01 -1.325510025024414062e+01 3.126589965820312500e+01
-1.505109977722167969e+01 -1.363169956207275391e+01 3.137999916076660156e+01
-1.480420017242431641e+01 -1.377550029754638672e+01 3.131150054931640625e+01
-1.461970043182373047e+01 -1.405920028686523438e+01 3.135289955139160156e+01
-1.445699977874755859e+01 -1.439200019836425781e+01 3.143289947509765625e+01
-1.423980045318603516e+01 -1.460229969024658203e+01 3.141670036315917969e+01
-1.406970024108886719e+01 -1.491759967803955078e+01 3.148310089111328125e+01
-1.389939975738525391e+01 -1.523229980468750000e+01 3.154910087585449219e+01
-1.371010017395019531e+01 -1.550430011749267578e+01 3.158160018920898438e+01
-1.353479957580566406e+01 -1.580749988555908203e+01 3.163870048522949219e+01
-1.337220001220703125e+01 -1.613839912414550781e+01 3.171769905090332031e+01
-1.313619995117187500e+01 -1.630629920959472656e+01 3.166819953918457031e+01
-1.298260021209716797e+01 -1.665670013427734375e+01 3.176269912719726562e+01
-1.285309982299804688e+01 -1.705979919433593750e+01 3.189900016784667969e+01
-1.259491443634033203e+01 -1.717779922485351562e+01 3.181043434143066406e+01
-1.242351436614990234e+01 -1.748800086975097656e+01 3.187353324890136719e+01
-1.221281433105468750e+01 -1.771129989624023438e+01 3.186793327331542969e+01
-1.200461483001708984e+01 -1.794005393981933594e+01 3.186643409729003906e+01
-1.185999011993408203e+01 -1.830946731567382812e+01 3.197572326660156250e+01
-1.164338397979736328e+01 -1.851951026916503906e+01 3.195961952209472656e+01
-1.144808387756347656e+01 -1.877611160278320312e+01 3.198052024841308594e+01
-1.127728366851806641e+01 -1.908601188659667969e+01 3.204371643066406250e+01
-1.109846973419189453e+01 -1.937891006469726562e+01 3.209308624267578125e+01
-1.090056419372558594e+01 -1.962926292419433594e+01 3.210908126831054688e+01
-1.069512939453125000e+01 -1.985227775573730469e+01 3.211201095581054688e+01
-1.052056407928466797e+01 -2.016376304626464844e+01 3.216818237304687500e+01
-1.030180263519287109e+01 -2.036936378479003906e+01 3.214826965332031250e+01
-1.011050319671630859e+01 -2.063346290588378906e+01 3.217536926269531250e+01
-9.912779808044433594e+00 -2.088257980346679688e+01 3.219135284423828125e+01
-9.703881263732910156e+00 -2.110828018188476562e+01 3.218795394897460938e+01
-9.496085166931152344e+00 -2.133690452575683594e+01 3.218660736083984375e+01
-9.290285110473632812e+00 -2.156920433044433594e+01 3.218860626220703125e+01
-9.075587272644042969e+00 -2.178250694274902344e+01 3.217504882812500000e+01
-8.867087364196777344e+00 -2.200870704650878906e+01 3.217214584350585938e+01
-8.655893325805664062e+00 -2.222905349731445312e+01 3.216263198852539062e+01
-8.450093269348144531e+00 -2.246095275878906250e+01 3.216287231445312500e+01
-8.239493370056152344e+00 -2.268255233764648438e+01 3.215285110473632812e+01
-8.027714729309082031e+00 -2.290297698974609375e+01 3.214447021484375000e+01
-7.816634654998779297e+00 -2.312413406372070312e+01 3.213693237304687500e+01
-7.569334506988525391e+00 -2.326912689208984375e+01 3.206773376464843750e+01
-7.353085994720458984e+00 -2.347885894775390625e+01 3.205135726928710938e+01
-6.882378578186035156e+00 -2.448934173583984375e+01 3.230663299560546875e+01
-6.653078556060791016e+00 -2.467044258117675781e+01 3.226793289184570312e+01
-6.460917949676513672e+00 -2.492993354797363281e+01 3.229225158691406250e+01
-6.277418136596679688e+00 -2.520793342590332031e+01 3.233115005493164062e+01
-6.018690109252929688e+00 -2.532491302490234375e+01 3.224603271484375000e+01
-5.300325870513916016e+00 -2.580237579345703125e+01 3.208197402954101562e+01
