2.356559944152832031e+01 -3.315430068969726562e+01 4.164939880371093750e+01
2.382049942016601562e+01 -3.329529953002929688e+01 4.157740020751953125e+01
2.406329917907714844e+01 -3.345869827270507812e+01 4.152320098876953125e+01
2.430699920654296875e+01 -3.362049865722656250e+01 4.146780014038085938e+01
2.452510070800781250e+01 -3.382960128784179688e+01 4.145000076293945312e+01
2.479290008544921875e+01 -3.394720077514648438e+01 4.135919952392578125e+01
2.504000091552734375e+01 -3.410309982299804688e+01 4.129890060424804688e+01
2.529109954833984375e+01 -3.425170135498046875e+01 4.123270034790039062e+01
2.548670005798339844e+01 -3.450239944458007812e+01 4.124810028076171875e+01
2.576589965820312500e+01 -3.459949874877929688e+01 4.114080047607421875e+01
2.599200057983398438e+01 -3.479430007934570312e+01 4.111149978637695312e+01
2.622380065917968750e+01 -3.497859954833984375e+01 4.107379913330078125e+01
2.651390075683593750e+01 -3.505659866333007812e+01 4.095100021362304688e+01
2.674979972839355469e+01 -3.523350143432617188e+01 4.090729904174804688e+01
2.695439910888671875e+01 -3.546780014038085938e+01 4.090950012207031250e+01
2.724909973144531250e+01 -3.553779983520507812e+01 4.078010177612304688e+01
2.749979972839355469e+01 -3.568840026855468750e+01 4.071519851684570312e+01
2.775480079650878906e+01 -3.583100128173828125e+01 4.064400100708007812e+01
2.800679969787597656e+01 -3.597993850708007812e+01 4.057730102539062500e+01
2.826189994812011719e+01 -3.612253952026367188e+01 4.050590133666992188e+01
2.849609947204589844e+01 -3.630344009399414062e+01 4.046509933471679688e+01
2.877960014343261719e+01 -3.639523696899414062e+01 4.035279846191406250e+01
2.900000000000000000e+01 -3.660113906860351562e+01 4.033209991455078125e+01
2.920490074157714844e+01 -3.683493804931640625e+01 4.033390045166015625e+01
2.947649955749511719e+01 -3.694853973388671875e+01 4.023889923095703125e+01
2.979680061340332031e+01 -3.697504043579101562e+01 4.007389831542968750e+01
3.003149986267089844e+01 -3.715543746948242188e+01 4.003260040283203125e+01
3.028149986267089844e+01 -3.730863952636718750e+01 3.996929931640625000e+01
3.055540084838867188e+01 -3.741903686523437500e+01 3.987149810791015625e+01
3.076689910888671875e+01 -3.764070129394531250e+01 3.986370086669921875e+01
3.107679939270019531e+01 -3.768730163574218750e+01 3.971440124511718750e+01
3.128700065612792969e+01 -3.791189956665039062e+01 3.970859909057617188e+01
3.156710052490234375e+01 -3.801210021972656250e+01 3.960229873657226562e+01
3.186149978637695312e+01 -3.808700180053710938e+01 3.947549819946289062e+01
3.213959884643554688e+01 -3.819120025634765625e+01 3.937239837646484375e+01
3.240579986572265625e+01 -3.831679916381835938e+01 3.928639984130859375e+01
3.264429855346679688e+01 -3.849150085449218750e+01 3.924010086059570312e+01
3.288539886474609375e+01 -3.866180038452148438e+01 3.919020080566406250e+01
3.321480178833007812e+01 -3.867610168457031250e+01 3.901409912109375000e+01
3.346310043334960938e+01 -3.883409881591796875e+01 3.895410156250000000e+01
3.372760009765625000e+01 -3.896360015869140625e+01 3.887099838256835938e+01
3.399219894409179688e+01 -3.909299850463867188e+01 3.878779983520507812e+01
3.421829986572265625e+01 -3.929040145874023438e+01 3.875970077514648438e+01
3.452190017700195312e+01 -3.935160064697265625e+01 3.862099838256835938e+01
3.478390121459960938e+01 -3.948619842529296875e+01 3.854169845581054688e+01
3.506710052490234375e+01 -3.958369827270507812e+01 3.843239974975585938e+01
3.532870101928710938e+01 -3.971973800659179688e+01 3.835390090942382812e+01
3.559069824218750000e+01 -3.985493850708007812e+01 3.827510070800781250e+01
3.587839889526367188e+01 -3.994524002075195312e+01 3.815959930419921875e+01
3.616880035400390625e+01 -4.003123855590820312e+01 3.804050064086914062e+01
3.641429901123046875e+01 -4.019573974609375000e+01 3.798529815673828125e+01
3.665890121459960938e+01 -4.036193847656250000e+01 3.793140029907226562e+01
3.694710159301757812e+01 -4.045233917236328125e+01 3.781570053100585938e+01
3.723740005493164062e+01 -4.053933715820312500e+01 3.769720077514648438e+01
3.750609970092773438e+01 -4.066413879394531250e+01 3.760940170288085938e+01
3.780160140991210938e+01 -4.074240112304687500e+01 3.748389816284179688e+01
3.806129837036132812e+01 -4.088299942016601562e+01 3.740890121459960938e+01
3.830879974365234375e+01 -4.104552841186523438e+01 3.735150146484375000e+01
3.857989883422851562e+01 -4.116713333129882812e+01 3.726050186157226562e+01
3.889400100708007812e+01 -4.121463394165039062e+01 3.710919952392578125e+01
3.922299957275390625e+01 -4.123753356933593750e+01 3.693709945678710938e+01
3.946780014038085938e+01 -4.140503692626953125e+01 3.688370132446289062e+01
3.973289871215820312e+01 -4.153773498535156250e+01 3.680179977416992188e+01
4.007440185546875000e+01 -4.153953552246093750e+01 3.661259841918945312e+01
4.037500000000000000e+01 -4.161183547973632812e+01 3.648109817504882812e+01
4.062120056152343750e+01 -4.177720642089843750e+01 3.642589950561523438e+01
4.092179870605468750e+01 -4.185003662109375000e+01 3.629479980468750000e+01
4.114989852905273438e+01 -4.204870223999023438e+01 3.626520156860351562e+01
4.153340148925781250e+01 -4.198070144653320312e+01 3.601810073852539062e+01
4.180799865722656250e+01 -4.209809494018554688e+01 3.592359924316406250e+01
4.204280090332031250e+01 -4.228419494628906250e+01 3.588499832153320312e+01
4.241669845581054688e+01 -4.223389434814453125e+01 3.565200042724609375e+01
4.261790084838867188e+01 -4.247729492187500000e+01 3.566040039062500000e+01
4.302550125122070312e+01 -4.237207794189453125e+01 3.538079833984375000e+01
4.313679885864257812e+01 -4.276797866821289062e+01 3.551470184326171875e+01
4.352809906005859375e+01 -4.268860626220703125e+01 3.525820159912109375e+01
4.380429840087890625e+01 -4.280560684204101562e+01 3.516239929199218750e+01
4.422669982910156250e+01 -4.267567825317382812e+01 3.486320114135742188e+01
4.445859909057617188e+01 -4.286797714233398438e+01 3.482929992675781250e+01
4.472940063476562500e+01 -4.299497604370117188e+01 3.474129867553710938e+01
4.500419998168945312e+01 -4.311537933349609375e+01 3.464789962768554688e+01
4.529650115966796875e+01 -4.320657730102539062e+01 3.453030014038085938e+01
4.554339981079101562e+01 -4.337279891967773438e+01 3.447570037841796875e+01
4.592079925537109375e+01 -4.332210159301757812e+01 3.424050140380859375e+01
4.621749877929687500e+01 -4.340689849853515625e+01 3.411719894409179688e+01
4.649089813232421875e+01 -4.353089904785156250e+01 3.402640151977539062e+01
4.675669860839843750e+01 -4.366780090332031250e+01 3.394609832763671875e+01
4.707960128784179688e+01 -4.370959854125976562e+01 3.378699874877929688e+01
4.749649810791015625e+01 -4.359540176391601562e+01 3.349840164184570312e+01
4.774549865722656250e+01 -4.376110076904296875e+01 3.344169998168945312e+01
4.803359985351562500e+01 -4.386190032958984375e+01 3.333110046386718750e+01
4.827870178222656250e+01 -4.403440093994140625e+01 3.327999877929687500e+01
4.854349899291992188e+01 -4.417430114746093750e+01 3.320180130004882812e+01
4.894229888916015625e+01 -4.409260177612304688e+01 3.293920135498046875e+01
4.922809982299804688e+01 -4.419829940795898438e+01 3.283240127563476562e+01
4.954650115966796875e+01 -4.425040054321289062e+01 3.268080139160156250e+01
5.113529968261718750e+01 -4.452209854125976562e+01 3.193050003051757812e+01
5.135139846801757812e+01 -4.474420166015625000e+01 3.192000007629394531e+01
5.175490188598632812e+01 -4.465940093994140625e+01 3.165340042114257812e+01
5.265790176391601562e+01 -4.491090011596679688e+01 3.127490043640136719e+01
5.298600006103515625e+01 -4.495109939575195312e+01 3.111210060119628906e+01
-1.374405860900878906e+01 2.906706619262695312e+01 3.117605209350585938e+01
-1.351019954681396484e+01 2.886489868164062500e+01 3.114743232727050781e+01
-1.319166469573974609e+01 2.886720085144042969e+01 3.096835708618164062e+01
-1.312631797790527344e+01 2.825813293457031250e+01 3.123722457885742188e+01
-1.290461826324462891e+01 2.802653312683105469e+01 3.122882461547851562e+01
-1.301257610321044922e+01 2.700285530090332031e+01 3.179533576965332031e+01
-1.281063461303710938e+01 2.672522735595703125e+01 3.182068824768066406e+01
-1.279759502410888672e+01 2.599452400207519531e+01 3.207521438598632812e+01
-1.239657306671142578e+01 2.619494819641113281e+01 3.185445594787597656e+01
-1.244366264343261719e+01 2.532319259643554688e+01 3.230593109130859375e+01
-1.260315036773681641e+01 2.418931961059570312e+01 3.284922409057617188e+01
-1.227919197082519531e+01 2.419839477539062500e+01 3.276358032226562500e+01
-1.217326164245605469e+01 2.369250679016113281e+01 3.295859527587890625e+01
-1.193645477294921875e+01 2.326299858093261719e+01 3.304802703857421875e+01
-1.194588088989257812e+01 2.269384193420410156e+01 3.321679306030273438e+01
-1.163933849334716797e+01 2.270392608642578125e+01 3.314805221557617188e+01
-1.175000000000000000e+01 2.168988227844238281e+01 3.371254730224609375e+01
-1.160126686096191406e+01 2.130035400390625000e+01 3.383110427856445312e+01
-1.149426746368408203e+01 2.080676269531250000e+01 3.402955627441406250e+01
-1.115078258514404297e+01 2.086620903015136719e+01 3.380596542358398438e+01
-1.143437194824218750e+01 1.945592880249023438e+01 3.467192459106445312e+01
-1.125704574584960938e+01 1.912558746337890625e+01 3.473346328735351562e+01
-1.103089618682861328e+01 1.873985671997070312e+01 3.481246566772460938e+01
-1.091061592102050781e+01 1.845100784301757812e+01 3.486322021484375000e+01
-1.065880393981933594e+01 1.829835700988769531e+01 3.479630661010742188e+01
-1.042703533172607422e+01 1.810105705261230469e+01 3.476471710205078125e+01
-1.020094776153564453e+01 1.788409042358398438e+01 3.474870300292968750e+01
-9.921137809753417969e+00 1.779543495178222656e+01 3.463705825805664062e+01
-9.708623886108398438e+00 1.755934143066406250e+01 3.485210037231445312e+01
-1.006312370300292969e+01 1.596357536315917969e+01 3.560837936401367188e+01
-9.871250152587890625e+00 1.567179012298583984e+01 3.564434432983398438e+01
-9.715612411499023438e+00 1.529507637023925781e+01 3.574531936645507812e+01
-9.449212074279785156e+00 1.517777633666992188e+01 3.565541839599609375e+01
-9.231385231018066406e+00 1.499735832214355469e+01 3.567420959472656250e+01
-1.022607517242431641e+01 1.192325210571289062e+01 3.772298049926757812e+01
-1.007737541198730469e+01 1.153755187988281250e+01 3.783158111572265625e+01
-9.981275558471679688e+00 1.103125190734863281e+01 3.802918243408203125e+01
-9.942874908447265625e+00 1.039275264739990234e+01 3.832458114624023438e+01
-9.849675178527832031e+00 9.881552696228027344e+00 3.852638244628906250e+01
-9.712375640869140625e+00 9.472352027893066406e+00 3.865288162231445312e+01
-9.545775413513183594e+00 9.131052017211914062e+00 3.872958374023437500e+01
-9.392900466918945312e+00 8.758299827575683594e+00 3.882929992675781250e+01
-9.200799942016601562e+00 8.475899696350097656e+00 3.886259841918945312e+01
-9.029700279235839844e+00 8.145899772644042969e+00 3.893109893798828125e+01
-8.849800109863281250e+00 7.836200237274169922e+00 3.898469924926757812e+01
-8.646200180053710938e+00 7.580699920654296875e+00 3.899819946289062500e+01
-8.446399688720703125e+00 7.316800117492675781e+00 3.901800155639648438e+01
-8.229100227355957031e+00 7.092800140380859375e+00 3.900830078125000000e+01
-8.016599655151367188e+00 6.857800006866455078e+00 3.900669860839843750e+01
-7.810626029968261719e+00 6.610064029693603516e+00 3.901486587524414062e+01
-7.596889972686767578e+00 6.379635810852050781e+00 3.900895309448242188e+01
-7.386651515960693359e+00 6.142884254455566406e+00 3.900757598876953125e+01
-7.177512645721435547e+00 5.903487682342529297e+00 3.900628280639648438e+01
-6.961773872375488281e+00 5.678783893585205078e+00 3.899216079711914062e+01
-6.741876125335693359e+00 5.462010383605957031e+00 3.897294616699218750e+01
-6.521650314331054688e+00 5.244235038757324219e+00 3.895115280151367188e+01
-6.303637027740478516e+00 5.023765563964843750e+00 3.893430709838867188e+01
-6.086877822875976562e+00 4.801025867462158203e+00 3.892169570922851562e+01
-5.853254318237304688e+00 4.615304470062255859e+00 3.888151168823242188e+01
-5.631133556365966797e+00 4.403323650360107422e+00 3.886329269409179688e+01
-5.413846492767333984e+00 4.178458690643310547e+00 3.885588073730468750e+01
-5.164861202239990234e+00 4.024888992309570312e+00 3.879531860351562500e+01
-4.901914119720458984e+00 3.817300319671630859e+00 3.877530288696289062e+01
-4.690918922424316406e+00 3.508650302886962891e+00 3.895872879028320312e+01
-4.517939090728759766e+00 3.349325418472290039e+00 3.877042007446289062e+01
-4.638250350952148438e+00 2.377825021743774414e+00 3.933278656005859375e+01
-4.507382869720458984e+00 1.961633324623107910e+00 3.947080230712890625e+01
-4.295401096343994141e+00 1.726043939590454102e+00 3.947454833984375000e+01
-4.093809127807617188e+00 1.470177412033081055e+00 3.948836517333984375e+01
-3.886465072631835938e+00 1.224855780601501465e+00 3.949620056152343750e+01
-3.700664997100830078e+00 9.338557720184326172e-01 3.953720092773437500e+01
-3.483829975128173828e+00 7.084653377532958984e-01 3.953054046630859375e+01
-3.251188755035400391e+00 5.139005184173583984e-01 3.950463867187500000e+01
-3.033605813980102539e+00 2.930568754673004150e-01 3.949351882934570312e+01
-2.795105934143066406e+00 1.181568801403045654e-01 3.944762039184570312e+01
-2.559205770492553711e+00 -6.244311481714248657e-02 3.940601730346679688e+01
-2.422910690307617188e+00 -4.617060124874114990e-01 3.952722549438476562e+01
-2.380334854125976562e+00 -1.064800262451171875e+00 3.980185699462890625e+01
-2.482700109481811523e+00 -1.983399987220764160e+00 4.031420135498046875e+01
-2.278800010681152344e+00 -2.232300043106079102e+00 4.032429885864257812e+01
-2.075400114059448242e+00 -2.481899976730346680e+00 4.033489990234375000e+01
-1.906800031661987305e+00 -2.806999921798706055e+00 4.040230178833007812e+01
-1.712299942970275879e+00 -3.075599908828735352e+00 4.042739868164062500e+01
-1.517899990081787109e+00 -3.344099998474121094e+00 4.045240020751953125e+01
-1.389400005340576172e+00 -3.755100011825561523e+00 4.058480072021484375e+01
-1.167199969291687012e+00 -3.963399887084960938e+00 4.056449890136718750e+01
-1.001600027084350586e+00 -4.293399810791015625e+00 4.063600158691406250e+01
-8.050000071525573730e-01 -4.556399822235107422e+00 4.065710067749023438e+01
-6.751000285148620605e-01 -4.962800025939941406e+00 4.078639984130859375e+01
-4.702000021934509277e-01 -5.207399845123291016e+00 4.079370117187500000e+01
-2.856999933719635010e-01 -5.495800018310546875e+00 4.083420181274414062e+01
-1.066000014543533325e-01 -5.795599937438964844e+00 4.088320159912109375e+01
1.010999977588653564e-01 -6.033800125122070312e+00 4.088579940795898438e+01
2.887000143527984619e-01 -6.314899921417236328e+00 4.092089843750000000e+01
4.343999922275543213e-01 -6.685200214385986328e+00 4.102349853515625000e+01
6.729999780654907227e-01 -6.857100009918212891e+00 4.097600173950195312e+01
8.537999987602233887e-01 -7.152100086212158203e+00 4.102170181274414062e+01
9.995999932289123535e-01 -7.521100044250488281e+00 4.112360000610351562e+01
1.207100033760070801e+00 -7.758800029754638672e+00 4.112599945068359375e+01
1.367300033569335938e+00 -8.096699714660644531e+00 4.120449829101562500e+01
1.541300058364868164e+00 -8.405200004577636719e+00 4.126070022583007812e+01
1.775900006294250488e+00 -8.585000038146972656e+00 4.121929931640625000e+01
1.921100020408630371e+00 -8.953800201416015625e+00 4.132149887084960938e+01
2.102200031280517578e+00 -9.246600151062011719e+00 4.136600112915039062e+01
2.318700075149536133e+00 -9.464400291442871094e+00 4.135350036621093750e+01
2.507600069046020508e+00 -9.740200042724609375e+00 4.138520050048828125e+01
2.723099946975708008e+00 -9.959799766540527344e+00 4.137419891357421875e+01
2.873899936676025391e+00 -1.031540012359619141e+01 4.146659851074218750e+01
3.071899890899658203e+00 -1.057149982452392578e+01 4.148350143432617188e+01
3.201499938964843750e+00 -1.097080039978027344e+01 4.160940170288085938e+01
3.417399883270263672e+00 -1.118900012969970703e+01 4.159749984741210938e+01
3.581199884414672852e+00 -1.151609992980957031e+01 4.166859817504882812e+01
3.811100006103515625e+00 -1.170489978790283203e+01 4.163430023193359375e+01
3.928200006484985352e+00 -1.212870025634765625e+01 4.177930068969726562e+01
4.145400047302246094e+00 -1.234360027313232422e+01 4.176499938964843750e+01
4.304699897766113281e+00 -1.267889976501464844e+01 4.184270095825195312e+01
4.542500019073486328e+00 -1.285089969635009766e+01 4.179570007324218750e+01
4.759200096130371094e+00 -1.306690025329589844e+01 4.178219985961914062e+01
4.892899990081787109e+00 -1.345440006256103516e+01 4.190000152587890625e+01
5.166600227355957031e+00 -1.355220031738281250e+01 4.179619979858398438e+01
5.283400058746337891e+00 -1.397389984130859375e+01 4.194029998779296875e+01
5.484899997711181641e+00 -1.422070026397705078e+01 4.195059967041015625e+01
5.647399902343750000e+00 -1.454749965667724609e+01 4.202220153808593750e+01
5.897299766540527344e+00 -1.469439983367919922e+01 4.195600128173828125e+01
6.051700115203857422e+00 -1.503750038146972656e+01 4.204019927978515625e+01
6.217700004577636719e+00 -1.535649967193603516e+01 4.210599899291992188e+01
6.451300144195556641e+00 -1.553670024871826172e+01 4.206549835205078125e+01
6.607900142669677734e+00 -1.587450027465820312e+01 4.214580154418945312e+01
6.835199832916259766e+00 -1.606749916076660156e+01 4.211510086059570312e+01
7.030300140380859375e+00 -1.632600021362304688e+01 4.213460159301757812e+01
7.204899787902832031e+00 -1.662639999389648438e+01 4.218650054931640625e+01
7.362500190734863281e+00 -1.696109962463378906e+01 4.226480102539062500e+01
7.615099906921386719e+00 -1.710219955444335938e+01 4.219419860839843750e+01
7.767199993133544922e+00 -1.744750022888183594e+01 4.228070068359375000e+01
7.928699970245361328e+00 -1.777370071411132812e+01 4.235260009765625000e+01
8.168299674987792969e+00 -1.794109916687011719e+01 4.230229949951171875e+01
8.348899841308593750e+00 -1.822800064086914062e+01 4.234400177001953125e+01
8.503399848937988281e+00 -1.856730079650878906e+01 4.242630004882812500e+01
8.692199707031250000e+00 -1.883709907531738281e+01 4.245500183105468750e+01
8.899299621582031250e+00 -1.906990051269531250e+01 4.245520019531250000e+01
9.167400360107421875e+00 -1.918000030517578125e+01 4.236059951782226562e+01
9.348099708557128906e+00 -1.946579933166503906e+01 4.240169906616210938e+01
9.542900085449218750e+00 -1.972310066223144531e+01 4.242089843750000000e+01
9.740699768066406250e+00 -1.997450065612792969e+01 4.243560028076171875e+01
9.966799736022949219e+00 -2.016880035400390625e+01 4.240599822998046875e+01
1.017389965057373047e+01 -2.040110015869140625e+01 4.240599822998046875e+01
1.039726829528808594e+01 -2.060020637512207031e+01 4.237994003295898438e+01
1.059916782379150391e+01 -2.084270477294921875e+01 4.238784027099609375e+01
1.081106853485107422e+01 -2.106540489196777344e+01 4.238034057617187500e+01
1.103906822204589844e+01 -2.125600624084472656e+01 4.234794235229492188e+01
1.134706783294677734e+01 -2.128770637512207031e+01 4.219234085083007812e+01
1.155596828460693359e+01 -2.151640510559082031e+01 4.218944168090820312e+01
1.165416812896728516e+01 -2.196430587768554688e+01 4.235674285888671875e+01
1.174406814575195312e+01 -2.242810630798339844e+01 4.253674316406250000e+01
1.194536781311035156e+01 -2.267100524902343750e+01 4.254504013061523438e+01
1.215906810760498047e+01 -2.288950538635253906e+01 4.253454208374023438e+01
1.231210041046142578e+01 -2.322820091247558594e+01 4.261769866943359375e+01
1.249199962615966797e+01 -2.351289939880371094e+01 4.265869903564453125e+01
1.271889972686767578e+01 -2.370499992370605469e+01 4.262770080566406250e+01
1.292389965057373047e+01 -2.394009971618652344e+01 4.263010025024414062e+01
1.309010028839111328e+01 -2.425119972229003906e+01 4.269179916381835938e+01
1.332909965515136719e+01 -2.441930007934570312e+01 4.264210128784179688e+01
1.350809955596923828e+01 -2.470499992370605469e+01 4.268420028686523438e+01
1.375020027160644531e+01 -2.486720085144042969e+01 4.262990188598632812e+01
1.395419979095458984e+01 -2.510370063781738281e+01 4.263359832763671875e+01
1.413300037384033203e+01 -2.538929939270019531e+01 4.267559814453125000e+01
1.432299995422363281e+01 -2.565290069580078125e+01 4.270059967041015625e+01
1.458500003814697266e+01 -2.577639961242675781e+01 4.261600112915039062e+01
1.481140041351318359e+01 -2.596910095214843750e+01 4.258539962768554688e+01
1.502929973602294922e+01 -2.617840003967285156e+01 4.256800079345703125e+01
1.522700023651123047e+01 -2.642679977416992188e+01 4.258110046386718750e+01
1.542160034179687500e+01 -2.668120002746582031e+01 4.259889984130859375e+01
1.564910030364990234e+01 -2.687179946899414062e+01 4.256679916381835938e+01
1.589949989318847656e+01 -2.701810073852539062e+01 4.249990081787109375e+01
1.608180046081542969e+01 -2.729599952697753906e+01 4.253620147705078125e+01
1.632839965820312500e+01 -2.744969940185546875e+01 4.247510147094726562e+01
1.654089927673339844e+01 -2.766939926147460938e+01 4.246569824218750000e+01
1.674340057373046875e+01 -2.790789985656738281e+01 4.247119903564453125e+01
1.696010017395019531e+01 -2.811930084228515625e+01 4.245539855957031250e+01
1.716650009155273438e+01 -2.835040092468261719e+01 4.245510101318359375e+01
1.741920089721679688e+01 -2.849259948730468750e+01 4.238489913940429688e+01
1.764529991149902344e+01 -2.868610000610351562e+01 4.235490036010742188e+01
1.786330032348632812e+01 -2.889489936828613281e+01 4.233710098266601562e+01
1.807430076599121094e+01 -2.911700057983398438e+01 4.232970046997070312e+01
1.828840065002441406e+01 -2.933340072631835938e+01 4.231779861450195312e+01
1.853470039367675781e+01 -2.948810005187988281e+01 4.225730133056640625e+01
1.875160026550292969e+01 -2.969910049438476562e+01 4.224119949340820312e+01
1.897890090942382812e+01 -2.989039993286132812e+01 4.220959854125976562e+01
1.920400047302246094e+01 -3.008550071716308594e+01 4.218090057373046875e+01
1.946019935607910156e+01 -3.022209930419921875e+01 4.210609817504882812e+01
1.970219993591308594e+01 -3.038559913635253906e+01 4.205239868164062500e+01
1.987660026550292969e+01 -3.067679977416992188e+01 4.209960174560546875e+01
2.014669990539550781e+01 -3.078730010986328125e+01 4.200400161743164062e+01
2.033329963684082031e+01 -3.105520057678222656e+01 4.203290176391601562e+01
2.056620025634765625e+01 -3.123600006103515625e+01 4.199290084838867188e+01
2.081760025024414062e+01 -3.138209915161132812e+01 4.192530059814453125e+01
2.105920028686523438e+01 -3.154660034179687500e+01 4.187239837646484375e+01
2.127580070495605469e+01 -3.175830078125000000e+01 4.185670089721679688e+01
2.150860023498535156e+01 -3.193930053710937500e+01 4.181679916381835938e+01
2.175279998779296875e+01 -3.209920120239257812e+01 4.176010131835937500e+01
2.197389984130859375e+01 -3.230229949951171875e+01 4.173770141601562500e+01
2.220610046386718750e+01 -3.248479843139648438e+01 4.169879913330078125e+01
2.243449974060058594e+01 -3.267430114746093750e+01 4.166559982299804688e+01
2.265369987487792969e+01 -3.288100051879882812e+01 4.164599990844726562e+01
2.293549919128417969e+01 -3.297150039672851562e+01 4.153390121459960938e+01
2.317679977416992188e+01 -3.313719940185546875e+01 4.148170089721679688e+01
2.339789962768554688e+01 -3.334059906005859375e+01 4.145949935913085938e+01
2.362170028686523438e+01 -3.353889846801757812e+01 4.143310165405273438e+01
2.389469909667968750e+01 -3.364630126953125000e+01 4.133440017700195312e+01
2.411470031738281250e+01 -3.385200119018554688e+01 4.131380081176757812e+01
2.439319992065429688e+01 -3.394950103759765625e+01 4.120709991455078125e+01
2.462730026245117188e+01 -3.412900161743164062e+01 4.116569900512695312e+01
2.487910079956054688e+01 -3.427619934082031250e+01 4.109840011596679688e+01
2.512330055236816406e+01 -3.443740081787109375e+01 4.104230117797851562e+01
2.535759925842285156e+01 -3.461690139770507812e+01 4.100090026855468750e+01
2.561009979248046875e+01 -3.476309967041015625e+01 4.093270111083984375e+01
2.583740043640136719e+01 -3.495560073852539062e+01 4.090150070190429688e+01
2.606990051269531250e+01 -3.513850021362304688e+01 4.086259841918945312e+01
2.630870056152343750e+01 -3.531000137329101562e+01 4.081470108032226562e+01
2.656439971923828125e+01 -3.545080184936523438e+01 4.074209976196289062e+01
2.678739929199218750e+01 -3.565119934082031250e+01 4.071720123291015625e+01
2.709350013732910156e+01 -3.570059967041015625e+01 4.057130050659179688e+01
2.731229972839355469e+01 -3.590890121459960938e+01 4.055270004272460938e+01
2.757929992675781250e+01 -3.602980041503906250e+01 4.046390151977539062e+01
2.782799911499023438e+01 -3.618423843383789062e+01 4.040169906616210938e+01
2.810289955139160156e+01 -3.629123687744140625e+01 4.030160140991210938e+01
2.835350036621093750e+01 -3.644223785400390625e+01 4.023690032958984375e+01
2.860470008850097656e+01 -3.659233856201171875e+01 4.017139816284179688e+01
2.883950042724609375e+01 -3.677214050292968750e+01 4.012969970703125000e+01
2.906760025024414062e+01 -3.692004394531250000e+01 4.009769821166992188e+01
2.931509971618652344e+01 -3.712093734741210938e+01 4.003770065307617188e+01
2.955340003967285156e+01 -3.729463958740234375e+01 3.999110031127929688e+01
2.987820053100585938e+01 -3.731324005126953125e+01 3.981940078735351562e+01
3.011809921264648438e+01 -3.748423767089843750e+01 3.977050018310546875e+01
3.035199928283691406e+01 -3.766633987426757812e+01 3.973049926757812500e+01
3.063669967651367188e+01 -3.775709915161132812e+01 3.961709976196289062e+01
3.091360092163085938e+01 -3.786240005493164062e+01 3.951509857177734375e+01
3.114749908447265625e+01 -3.804470062255859375e+01 3.947520065307617188e+01
3.138100051879882812e+01 -3.822779846191406250e+01 3.943579864501953125e+01
3.170709991455078125e+01 -3.824610137939453125e+01 3.926330184936523438e+01
3.194910049438476562e+01 -3.841450119018554688e+01 3.921189880371093750e+01
3.219309997558593750e+01 -3.857920074462890625e+01 3.915760040283203125e+01
3.244879913330078125e+01 -3.872340011596679688e+01 3.908670043945312500e+01
3.274909973144531250e+01 -3.878870010375976562e+01 3.895180130004882812e+01
3.302560043334960938e+01 -3.889640045166015625e+01 3.885110092163085938e+01
3.326720046997070312e+01 -3.906610107421875000e+01 3.880059814453125000e+01
3.358380126953125000e+01 -3.910340118408203125e+01 3.864279937744140625e+01
3.385010147094726562e+01 -3.922980117797851562e+01 3.855699920654296875e+01
3.407870101928710938e+01 -3.942290115356445312e+01 3.852539825439453125e+01
3.434040069580078125e+01 -3.955770111083984375e+01 3.844639968872070312e+01
3.461309814453125000e+01 -3.967330169677734375e+01 3.835179901123046875e+01
3.487039947509765625e+01 -3.981610107421875000e+01 3.827920150756835938e+01
3.512440109252929688e+01 -3.996480178833007812e+01 3.821139907836914062e+01
3.542879867553710938e+01 -4.002603912353515625e+01 3.807199859619140625e+01
3.572290039062500000e+01 -4.010513687133789062e+01 3.794729995727539062e+01
3.603020095825195312e+01 -4.016164016723632812e+01 3.780410003662109375e+01
3.625220108032226562e+01 -4.036693954467773438e+01 3.778219985961914062e+01
3.653419876098632812e+01 -4.046783828735351562e+01 3.767509841918945312e+01
3.680099868774414062e+01 -4.059553909301757812e+01 3.758969879150390625e+01
3.707730102539062500e+01 -4.070684051513671875e+01 3.749100112915039062e+01
3.735079956054687500e+01 -4.082323837280273438e+01 3.739619827270507812e+01
3.769139862060546875e+01 -4.082310104370117188e+01 3.720660018920898438e+01
3.792490005493164062e+01 -4.100972747802734375e+01 3.716880035400390625e+01
3.820909881591796875e+01 -4.110822677612304688e+01 3.705929946899414062e+01
3.848160171508789062e+01 -4.122732925415039062e+01 3.696649932861328125e+01
3.870940017700195312e+01 -4.142383193969726562e+01 3.693679809570312500e+01
3.906750106811523438e+01 -4.139653396606445312e+01 3.672340011596679688e+01
3.934310150146484375e+01 -4.151083374023437500e+01 3.662649917602539062e+01
3.959059906005859375e+01 -4.167373657226562500e+01 3.656930160522460938e+01
3.985710144042968750e+01 -4.180423355102539062e+01 3.648550033569335938e+01
4.014039993286132812e+01 -4.190583419799804688e+01 3.637799835205078125e+01
4.042819976806640625e+01 -4.199993133544921875e+01 3.626440048217773438e+01
4.076219940185546875e+01 -4.201623535156250000e+01 3.608599853515625000e+01
4.105590057373046875e+01 -4.210200119018554688e+01 3.596440124511718750e+01
4.131150054931640625e+01 -4.225220108032226562e+01 3.589649963378906250e+01
4.156840133666992188e+01 -4.239949417114257812e+01 3.582659912109375000e+01
4.188010025024414062e+01 -4.245449447631835938e+01 3.568019866943359375e+01
4.212879943847656250e+01 -4.261689758300781250e+01 3.562200164794921875e+01
4.246139907836914062e+01 -4.263699722290039062e+01 3.544670104980468750e+01
4.277890014648437500e+01 -4.268309402465820312e+01 3.529259872436523438e+01
4.308140182495117188e+01 -4.275617599487304688e+01 3.515959930419921875e+01
4.336240005493164062e+01 -4.286454010009765625e+01 3.505680084228515625e+01
4.365110015869140625e+01 -4.295930862426757812e+01 3.494340133666992188e+01
4.392959976196289062e+01 -4.307260894775390625e+01 3.484429931640625000e+01
4.413069915771484375e+01 -4.331587982177734375e+01 3.485309982299804688e+01
4.445069885253906250e+01 -4.335967636108398438e+01 3.469649887084960938e+01
4.479570007324218750e+01 -4.336167907714843750e+01 3.450519943237304688e+01
4.509080123901367188e+01 -4.344670104980468750e+01 3.438349914550781250e+01
4.537960052490234375e+01 -4.354389953613281250e+01 3.427069854736328125e+01
4.571400070190429688e+01 -4.356510162353515625e+01 3.409489822387695312e+01
4.606090164184570312e+01 -4.356560134887695312e+01 3.390179824829101562e+01
4.629650115966796875e+01 -4.375260162353515625e+01 3.386309814453125000e+01
4.660670089721679688e+01 -4.381539916992187500e+01 3.372140121459960938e+01
4.705739974975585938e+01 -4.364410018920898438e+01 3.338539886474609375e+01
4.717509841918945312e+01 -4.402799987792968750e+01 3.350989913940429688e+01
4.750310134887695312e+01 -4.406200027465820312e+01 3.334389877319335938e+01
4.782410049438476562e+01 -4.410810089111328125e+01 3.318790054321289062e+01
4.813719940185546875e+01 -4.416749954223632812e+01 3.304280090332031250e+01
4.851710128784179688e+01 -4.411669921875000000e+01 3.280590057373046875e+01
4.861489868164062500e+01 -4.453329849243164062e+01 3.295780181884765625e+01
4.907300186157226562e+01 -4.435380172729492188e+01 3.261360168457031250e+01
4.935620117187500000e+01 -4.446400070190429688e+01 3.251029968261718750e+01
4.973529815673828125e+01 -4.441619873046875000e+01 3.227529907226562500e+01
5.064300155639648438e+01 -4.465409851074218750e+01 3.188719940185546875e+01
5.101520156860351562e+01 -4.461959838867187500e+01 3.166259956359863281e+01
5.124720001220703125e+01 -4.481560134887695312e+01 3.163039970397949219e+01
5.163710021972656250e+01 -4.475310134887695312e+01 3.138220024108886719e+01
5.193610000610351562e+01 -4.483990097045898438e+01 3.125849914550781250e+01
5.228570175170898438e+01 -4.484429931640625000e+01 3.106579971313476562e+01
5.325619888305664062e+01 -4.498799896240234375e+01 3.059600067138671875e+01
5.379449844360351562e+01 -4.526200103759765625e+01 3.043160057067871094e+01
5.407889938354492188e+01 -4.537459945678710938e+01 3.032880020141601562e+01
-1.383715915679931641e+01 2.904486656188964844e+01 3.084925270080566406e+01
-1.363689994812011719e+01 2.876109886169433594e+01 3.087973213195800781e+01
-1.348581790924072266e+01 2.835913276672363281e+01 3.099752426147460938e+01
-1.326331806182861328e+01 2.812953186035156250e+01 3.098772430419921875e+01
-1.336952781677246094e+01 2.710850524902343750e+01 3.155369758605957031e+01
-1.320844173431396484e+01 2.666934204101562500e+01 3.169674682617187500e+01
-1.333565711975097656e+01 2.569247436523437500e+01 3.203325653076171875e+01
-1.283093643188476562e+01 2.611629104614257812e+01 3.174714088439941406e+01
-1.277163505554199219e+01 2.550003814697265625e+01 3.201447296142578125e+01
-1.266444206237792969e+01 2.499524307250976562e+01 3.220207214355468750e+01
-1.262483501434326172e+01 2.433070373535156250e+01 3.250719833374023438e+01
-1.258789348602294922e+01 2.358536911010742188e+01 3.287054443359375000e+01
-1.236411380767822266e+01 2.344180488586425781e+01 3.279981613159179688e+01
-1.217066478729248047e+01 2.314668273925781250e+01 3.283597564697265625e+01
-1.200165843963623047e+01 2.130215072631835938e+01 3.367229461669921875e+01
-1.182373237609863281e+01 2.097385597229003906e+01 3.373635101318359375e+01
-1.178372383117675781e+01 2.031859970092773438e+01 3.403729629516601562e+01
-1.155994701385498047e+01 2.009447860717773438e+01 3.402378082275390625e+01
-1.166661548614501953e+01 1.904391098022460938e+01 3.453157424926757812e+01
-1.150546073913574219e+01 1.873351287841796875e+01 3.461428070068359375e+01
-1.125405025482177734e+01 1.857442092895507812e+01 3.457718658447265625e+01
-1.102070331573486328e+01 1.838390350341796875e+01 3.456782531738281250e+01
-1.075229549407958984e+01 1.827042579650878906e+01 3.447900009155273438e+01
-1.053017425537109375e+01 1.804635238647460938e+01 3.448133850097656250e+01
-1.039894580841064453e+01 1.760879135131835938e+01 3.460837173461914062e+01
-1.023339366912841797e+01 1.725593566894531250e+01 3.469205474853515625e+01
-1.041661643981933594e+01 1.607044982910156250e+01 3.537045288085937500e+01
-1.024641990661621094e+01 1.572365951538085938e+01 3.544366455078125000e+01
-1.006897354125976562e+01 1.539974117279052734e+01 3.550645446777343750e+01
-9.869772911071777344e+00 1.512644100189208984e+01 3.553135299682617188e+01
-9.592440605163574219e+00 1.505634784698486328e+01 3.544747924804687500e+01
-1.013370227813720703e+01 1.304602909088134766e+01 3.672560882568359375e+01
-1.033290004730224609e+01 1.186180019378662109e+01 3.743000030517578125e+01
-1.029967498779296875e+01 1.120955276489257812e+01 3.773558044433593750e+01
-1.015697574615478516e+01 1.081075191497802734e+01 3.785418319702148438e+01
-1.015027523040771484e+01 1.009915256500244141e+01 3.820378112792968750e+01
-9.998175621032714844e+00 9.723552703857421875e+00 3.830558395385742188e+01
-9.847499847412109375e+00 9.345000267028808594e+00 3.840950012207031250e+01
-9.692299842834472656e+00 8.977399826049804688e+00 3.850559997558593750e+01
-9.516699790954589844e+00 8.656900405883789062e+00 3.856710052490234375e+01
-9.347299575805664062e+00 8.322600364685058594e+00 3.863880157470703125e+01
-9.156499862670898438e+00 8.037599563598632812e+00 3.867409896850585938e+01
-8.960700035095214844e+00 7.764200210571289062e+00 3.870090103149414062e+01
-8.757100105285644531e+00 7.508600234985351562e+00 3.871450042724609375e+01
-8.559599876403808594e+00 7.239399909973144531e+00 3.873820114135742188e+01
-8.340700149536132812e+00 7.019000053405761719e+00 3.872579956054687500e+01
-8.133425712585449219e+00 6.773763656616210938e+00 3.873206329345703125e+01
-7.928256511688232422e+00 6.523549556732177734e+00 3.874066925048828125e+01
-7.714845657348632812e+00 6.295511245727539062e+00 3.873328018188476562e+01
-7.506996154785156250e+00 6.054532527923583984e+00 3.873309326171875000e+01
-7.296048641204833984e+00 5.817833423614501953e+00 3.872827911376953125e+01
-7.086277961730957031e+00 5.580415248870849609e+00 3.872612762451171875e+01
-6.857785701751708984e+00 5.383158206939697266e+00 3.869063186645507812e+01
-6.648663520812988281e+00 5.140926361083984375e+00 3.869050598144531250e+01
-6.432446479797363281e+00 4.917737007141113281e+00 3.867738342285156250e+01
-6.203659534454345703e+00 4.718557834625244141e+00 3.864679718017578125e+01
-5.974314212799072266e+00 4.522929668426513672e+00 3.861393737792968750e+01
-5.741752624511718750e+00 4.330974102020263672e+00 3.857981109619140625e+01
-5.495611190795898438e+00 4.185545444488525391e+00 3.864698028564453125e+01
-5.277690887451171875e+00 3.896833419799804688e+00 3.873717498779296875e+01
-5.041472911834716797e+00 3.678160190582275391e+00 3.865746307373046875e+01
-4.821996212005615234e+00 3.475039482116699219e+00 3.875875091552734375e+01
-5.055141925811767578e+00 2.326600074768066406e+00 3.920954513549804688e+01
-4.833159923553466797e+00 2.073655128479003906e+00 3.917517852783203125e+01
-4.663229942321777344e+00 1.789346218109130859e+00 3.926258087158203125e+01
-4.441046237945556641e+00 1.575935840606689453e+00 3.924978256225585938e+01
-4.231787204742431641e+00 1.337343573570251465e+00 3.925131225585937500e+01
-4.018465042114257812e+00 1.104555845260620117e+00 3.924920272827148438e+01
-3.816309452056884766e+00 8.470628261566162109e-01 3.926692199707031250e+01
-3.603801250457763672e+00 6.100319027900695801e-01 3.927009582519531250e+01
-3.358088731765747070e+00 4.487004876136779785e-01 3.921633911132812500e+01
-3.150988817214965820e+00 2.050005197525024414e-01 3.922203826904296875e+01
-2.927105903625488281e+00 -2.043116837739944458e-03 3.920051956176757812e+01
-2.834810733795166016e+00 -4.980060160160064697e-01 3.939442443847656250e+01
-2.821686029434204102e+00 -1.166000247001647949e+00 3.971736145019531250e+01
-2.794286012649536133e+00 -1.800900340080261230e+00 4.001726150512695312e+01
-2.640000104904174805e+00 -2.159300088882446289e+00 4.010979843139648438e+01
-2.472100019454956055e+00 -2.486299991607666016e+00 4.017869949340820312e+01
-2.307100057601928711e+00 -2.819400072097778320e+00 4.025220108032226562e+01
-2.043299913406372070e+00 -2.937299966812133789e+00 4.016389846801757812e+01
-1.880699992179870605e+00 -3.275000095367431641e+00 4.024089813232421875e+01
-1.761800050735473633e+00 -3.707200050354003906e+00 4.038940048217773438e+01
-1.524500012397766113e+00 -3.882600069046020508e+00 4.034429931640625000e+01
-1.384299993515014648e+00 -4.267799854278564453e+00 4.045750045776367188e+01
-1.129999995231628418e+00 -4.406199932098388672e+00 4.038470077514648438e+01
-1.041399955749511719e+00 -4.901999950408935547e+00 4.058140182495117188e+01
-8.413000106811523438e-01 -5.157100200653076172e+00 4.059669876098632812e+01
-6.377000212669372559e-01 -5.404600143432617188e+00 4.060620117187500000e+01
-4.401000142097473145e-01 -5.664700031280517578e+00 4.062530136108398438e+01
-2.944000065326690674e-01 -6.035799980163574219e+00 4.072840118408203125e+01
-7.060000300407409668e-02 -6.239399909973144531e+00 4.070500183105468750e+01
1.071000024676322937e-01 -6.541699886322021484e+00 4.075609970092773438e+01
2.957000136375427246e-01 -6.820300102233886719e+00 4.078939819335937500e+01
4.167999923229217529e-01 -7.242700099945068359e+00 4.093170166015625000e+01
6.420000195503234863e-01 -7.442699909210205078e+00 4.090560150146484375e+01
8.647000193595886230e-01 -7.648099899291992188e+00 4.088359832763671875e+01
1.019799947738647461e+00 -7.997300148010253906e+00 4.097060012817382812e+01
1.190400004386901855e+00 -8.312999725341796875e+00 4.103229904174804688e+01
1.382799983024597168e+00 -8.582300186157226562e+00 4.105889892578125000e+01
1.551499962806701660e+00 -8.901499748229980469e+00 4.112340164184570312e+01
1.750900030136108398e+00 -9.155500411987304688e+00 4.113850021362304688e+01
1.945099949836730957e+00 -9.420399665832519531e+00 4.116189956665039062e+01
2.122699975967407227e+00 -9.720000267028808594e+00 4.121170043945312500e+01
2.297300100326538086e+00 -1.002569961547851562e+01 4.126620101928710938e+01
2.472700119018554688e+00 -1.032960033416748047e+01 4.131940078735351562e+01
2.689199924468994141e+00 -1.054679965972900391e+01 4.130670166015625000e+01
2.816699981689453125e+00 -1.095069980621337891e+01 4.143619918823242188e+01
2.981699943542480469e+00 -1.127550029754638672e+01 4.150559997558593750e+01
3.215399980545043945e+00 -1.145629978179931641e+01 4.146519851684570312e+01
3.372900009155273438e+00 -1.179629993438720703e+01 4.154629898071289062e+01
3.565299987792968750e+00 -1.206319999694824219e+01 4.157160186767578125e+01
3.732800006866455078e+00 -1.238160037994384766e+01 4.163639831542968750e+01
3.960000038146972656e+00 -1.257579994201660156e+01 4.160630035400390625e+01
4.129700183868408203e+00 -1.288930034637451172e+01 4.166740036010742188e+01
4.315800189971923828e+00 -1.316849994659423828e+01 4.170240020751953125e+01
4.518099784851074219e+00 -1.341399955749511719e+01 4.171160125732421875e+01
4.747499942779541016e+00 -1.360299968719482422e+01 4.167770004272460938e+01
4.932499885559082031e+00 -1.388420009613037109e+01 4.171429824829101562e+01
5.080399990081787109e+00 -1.424149990081787109e+01 4.180920028686523438e+01
5.292200088500976562e+00 -1.446689987182617188e+01 4.180319976806640625e+01
5.427499771118164062e+00 -1.484959983825683594e+01 4.191780090332031250e+01
5.619500160217285156e+00 -1.511520004272460938e+01 4.194269943237304688e+01
5.834799766540527344e+00 -1.533300018310546875e+01 4.193099975585937500e+01
5.985300064086914062e+00 -1.568350028991699219e+01 4.202109909057617188e+01
6.161900043487548828e+00 -1.598019981384277344e+01 4.206999969482421875e+01
6.458300113677978516e+00 -1.603160095214843750e+01 4.193050003051757812e+01
6.637800216674804688e+00 -1.632200050354003906e+01 4.197470092773437500e+01
6.819900035858154297e+00 -1.660700035095214844e+01 4.201470184326171875e+01
6.925300121307373047e+00 -1.704829978942871094e+01 4.217509841918945312e+01
7.154399871826171875e+00 -1.723699951171875000e+01 4.214110183715820312e+01
7.374199867248535156e+00 -1.744459915161132812e+01 4.212179946899414062e+01
7.543700218200683594e+00 -1.775440025329589844e+01 4.218119812011718750e+01
7.718699932098388672e+00 -1.805279922485351562e+01 4.223180007934570312e+01
7.910699844360351562e+00 -1.831660079956054688e+01 4.225579833984375000e+01
8.172400474548339844e+00 -1.843899917602539062e+01 4.217079925537109375e+01
8.302499771118164062e+00 -1.882749938964843750e+01 4.229119873046875000e+01
8.510600090026855469e+00 -1.905839920043945312e+01 4.228990173339843750e+01
8.754099845886230469e+00 -1.921750068664550781e+01 4.223320007324218750e+01
8.961299896240234375e+00 -1.945000076293945312e+01 4.223329925537109375e+01
9.156700134277343750e+00 -1.970619964599609375e+01 4.225159835815429688e+01
9.324700355529785156e+00 -2.001729965209960938e+01 4.231240081787109375e+01
9.522899627685546875e+00 -2.026749992370605469e+01 4.232619857788085938e+01
9.777000427246093750e+00 -2.040550041198730469e+01 4.225320053100585938e+01
9.992859840393066406e+00 -2.061938095092773438e+01 4.223868560791015625e+01
1.017682743072509766e+01 -2.089688682556152344e+01 4.227352142333984375e+01
1.039772796630859375e+01 -2.110138702392578125e+01 4.225192260742187500e+01
1.063632774353027344e+01 -2.127058601379394531e+01 4.220302200317382812e+01
1.126772785186767578e+01 -2.194628524780273438e+01 4.218672180175781250e+01
1.143926811218261719e+01 -2.224950599670410156e+01 4.224214172363281250e+01
1.157786846160888672e+01 -2.261680603027343750e+01 4.234724044799804688e+01
1.174276828765869141e+01 -2.293170547485351562e+01 4.241164016723632812e+01
1.191359996795654297e+01 -2.323520088195800781e+01 4.246749877929687500e+01
1.213640022277832031e+01 -2.343549919128417969e+01 4.244290161132812500e+01
1.227939987182617188e+01 -2.379249954223632812e+01 4.254029846191406250e+01
1.250259971618652344e+01 -2.399169921875000000e+01 4.251490020751953125e+01
1.270629978179931641e+01 -2.422909927368164062e+01 4.251929855346679688e+01
1.294040012359619141e+01 -2.440679931640625000e+01 4.247710037231445312e+01
1.316580009460449219e+01 -2.460149955749511719e+01 4.244810104370117188e+01
1.336209964752197266e+01 -2.485330009460449219e+01 4.246369934082031250e+01
1.351259994506835938e+01 -2.519449996948242188e+01 4.254919815063476562e+01
1.377519989013671875e+01 -2.531640052795410156e+01 4.246340179443359375e+01
1.396259975433349609e+01 -2.558519935607910156e+01 4.249240112304687500e+01
1.414270019531250000e+01 -2.586790084838867188e+01 4.253229904174804688e+01
1.437590026855468750e+01 -2.604719924926757812e+01 4.249140167236328125e+01
1.462189960479736328e+01 -2.620170021057128906e+01 4.243109893798828125e+01
1.483160018920898438e+01 -2.642679977416992188e+01 4.242599868774414062e+01
1.500800037384033203e+01 -2.671619987487792969e+01 4.247129821777343750e+01
1.523859977722167969e+01 -2.690060043334960938e+01 4.243439865112304688e+01
1.548779964447021484e+01 -2.704920005798339844e+01 4.236930084228515625e+01
1.571039962768554688e+01 -2.724920082092285156e+01 4.234450149536132812e+01
1.595370006561279297e+01 -2.740920066833496094e+01 4.228839874267578125e+01
1.614080047607421875e+01 -2.767760086059570312e+01 4.231729888916015625e+01
1.634659957885742188e+01 -2.790990066528320312e+01 4.231790161132812500e+01
1.656459999084472656e+01 -2.811860084533691406e+01 4.230009841918945312e+01
1.676670074462890625e+01 -2.835790061950683594e+01 4.230619812011718750e+01
1.698200035095214844e+01 -2.857159996032714844e+01 4.229230117797851562e+01
1.724200057983398438e+01 -2.869989967346191406e+01 4.221110153198242188e+01
1.745350074768066406e+01 -2.892110061645507812e+01 4.220309829711914062e+01
1.768269920349121094e+01 -2.910829925537109375e+01 4.216830062866210938e+01
1.789389991760253906e+01 -2.932990074157714844e+01 4.216059875488281250e+01
1.813279914855957031e+01 -2.949880027770996094e+01 4.211119842529296875e+01
1.837800025939941406e+01 -2.965570068359375000e+01 4.205250167846679688e+01
1.858020019531250000e+01 -2.989450073242187500e+01 4.205830001831054688e+01
1.881780052185058594e+01 -3.006599998474121094e+01 4.201100158691406250e+01
1.904070091247558594e+01 -3.026539993286132812e+01 4.198580169677734375e+01
1.928700065612792969e+01 -3.042049980163574219e+01 4.192559814453125000e+01
1.948100090026855469e+01 -3.067460060119628906e+01 4.194340133666992188e+01
1.970630073547363281e+01 -3.086960029602050781e+01 4.191469955444335938e+01
1.994709968566894531e+01 -3.103520011901855469e+01 4.186280059814453125e+01
2.019429969787597656e+01 -3.118889999389648438e+01 4.180130004882812500e+01
2.038039970397949219e+01 -3.145770072937011719e+01 4.183089828491210938e+01
2.060939979553222656e+01 -3.164559936523437500e+01 4.179660034179687500e+01
2.088059997558593750e+01 -3.175440025329589844e+01 4.169950103759765625e+01
2.108230018615722656e+01 -3.199379920959472656e+01 4.170579910278320312e+01
2.133379936218261719e+01 -3.213980102539062500e+01 4.163819885253906250e+01
2.157180023193359375e+01 -3.231110000610351562e+01 4.159049987792968750e+01
2.180850028991699219e+01 -3.248509979248046875e+01 4.154489898681640625e+01
2.202650070190429688e+01 -3.269390106201171875e+01 4.152709960937500000e+01
2.223959922790527344e+01 -3.291189956665039062e+01 4.151649856567382812e+01
2.249749946594238281e+01 -3.304629898071289062e+01 4.143939971923828125e+01
2.275729942321777344e+01 -3.317760086059570312e+01 4.135979843139648438e+01
2.296529960632324219e+01 -3.340510177612304688e+01 4.135680007934570312e+01
2.320359992980957031e+01 -3.357640075683593750e+01 4.130899810791015625e+01
2.347340011596679688e+01 -3.368930053710937500e+01 4.121459960937500000e+01
2.369420051574707031e+01 -3.389310073852539062e+01 4.119269943237304688e+01
2.393149948120117188e+01 -3.406639862060546875e+01 4.114640045166015625e+01
2.418470001220703125e+01 -3.421070098876953125e+01 4.107699966430664062e+01
2.444949913024902344e+01 -3.433340072631835938e+01 4.099020004272460938e+01
2.467550086975097656e+01 -3.452799987792968750e+01 4.096089935302734375e+01
2.494120025634765625e+01 -3.464950180053710938e+01 4.087300109863281250e+01
2.516810035705566406e+01 -3.484239959716796875e+01 4.084230041503906250e+01
2.542760086059570312e+01 -3.497560119628906250e+01 4.076369857788085938e+01
2.567440032958984375e+01 -3.513209915161132812e+01 4.070380020141601562e+01
2.591640090942382812e+01 -3.529779815673828125e+01 4.065119934082031250e+01
2.616099929809570312e+01 -3.545859909057617188e+01 4.059460067749023438e+01
2.642275238037109375e+01 -3.558880996704101562e+01 4.051306152343750000e+01
2.664955139160156250e+01 -3.578240966796875000e+01 4.048266220092773438e+01
2.692175102233886719e+01 -3.589340972900390625e+01 4.038606262207031250e+01
