-1.0167 -5.8932 40.303
-0.8319 -6.1807 40.343
-0.6605 -6.4965 40.4045
-0.5196 -6.8773 40.5153
-0.2702 -7.0257 40.4501
-0.101 -7.3453 40.5147
0.0491 -7.7055 40.6101
0.2776 -7.8983 40.5786
0.4611 -8.1867 40.6197
0.5993 -8.5716 40.7342
0.8224 -8.7753 40.7111
0.9992 -9.0775 40.7628
1.1839 -9.3625 40.8015
1.356 -9.674 40.8605
1.5424 -9.955 40.8963
1.7012 -10.2939 40.9763
1.8976 -10.5534 40.9959
2.0776 -10.8472 41.0417
2.2472 -11.1625 41.1039
2.4275 -11.4553 41.1489
2.6674 -11.6229 41.0985
2.8173 -11.9787 41.1919
3.0228 -12.2181 41.1964
3.2377 -12.4379 41.1859
3.3921 -12.7835 41.2716
3.5872 -13.0441 41.2924
3.7697 -13.3309 41.3333
3.9713 -13.5777 41.3436
4.1146 -13.9453 41.4465
4.3309 -14.1612 41.4332
4.4918 -14.4917 41.5079
4.6833 -14.7586 41.5339
4.8871 -15.0 41.5402
5.0848 -15.2538 41.5562
5.2777 -15.5174 41.5797
5.4685 -15.7853 41.6065
5.6789 -16.0127 41.6023
5.8659 -16.2878 41.6347
6.0744 -16.519 41.6335
6.2291 -16.8599 41.7167
6.4225 -17.1214 41.7389
6.6125 -17.3899 41.7665
6.8152 -17.6322 41.7739
7.0005 -17.9098 41.8085
7.1651 -18.2293 41.8756
7.3731 -18.4605 41.8746
7.5761 -18.7015 41.8812
7.7455 -19.0107 41.9405
7.9395 -19.2697 41.9611
8.1709 -19.4531 41.9232
8.3848 -19.672 41.9128
8.5825 -19.9233 41.9274
8.7791 -20.1767 41.9438
9.0108 -20.3596 41.9055
9.1443 -20.7392 42.0198
9.3879 -20.8981 41.963
9.5814 -21.1573 41.9839
9.8546 -21.257 41.8811
10.0828 -21.4468 41.8482
10.3047 -21.649 41.8249
10.5325 -21.8397 41.7927
10.7327 -22.085 41.8029
10.9049 -22.3862 41.8567
10.9984 -22.8431 42.0317
11.1344 -23.2151 42.1408
11.3937 -23.3427 42.0596
11.5149 -23.7433 42.1911
11.7182 -23.9815 42.1961
11.8888 -24.2841 42.2515
12.0897 -24.5267 42.26
12.3188 -24.7137 42.2251
12.5331 -24.93 42.2132
12.7155 -25.2087 42.25
12.9497 -25.3858 42.2074
13.1531 -25.6231 42.2119
13.3784 -25.8176 42.1829
13.5905 -26.0378 42.174
13.809 -26.2456 42.1555
14.0203 -26.4673 42.1478
14.2534 -26.6465 42.1069
14.4264 -26.9427 42.1576
14.6545 -27.1316 42.1242
14.8879 -27.3103 42.0828
15.1 -27.5302 42.0738
15.3524 -27.6723 42.0036
15.5415 -27.9366 42.0296
15.783 -28.0998 41.976
15.9871 -28.3351 41.979
16.1893 -28.574 41.985
16.4208 -28.7564 41.9465
16.6427 -28.9575 41.9227
16.8486 -29.1891 41.9229
17.0882 -29.3561 41.8723
17.309 -29.5592 41.85
17.5367 -29.7491 41.8173
17.7711 -29.9261 41.7745
17.9853 -30.1419 41.7623
18.1943 -30.3673 41.7577
18.4431 -30.5173 41.6934
18.674 -30.7012 41.656
18.895 -30.904 41.6335
19.1247 -31.0901 41.5978
19.3438 -31.2966 41.5782
19.5804 -31.4698 41.5322
19.8085 -31.6593 41.4991
20.0298 -31.8614 41.4761
20.2633 -32.0408 41.435
20.5054 -32.2039 41.381
20.7401 -32.3811 41.338
20.9846 -32.5399 41.2805
21.2059 -32.7424 41.2577
21.4653 -32.8736 41.1781
21.6776 -33.0929 41.1686
21.9306 -33.2362 41.0987
22.1617 -33.4204 41.0613
22.3592 -33.6671 41.0737
22.6155 -33.8047 40.999
22.8472 -33.988 40.9608
23.0953 -34.1409 40.8983
23.3422 -34.2961 40.8376
23.573 -34.4813 40.8009
23.8033 -34.6674 40.7649
24.0632 -34.7988 40.6851
24.3206 -34.9354 40.6093
24.5737 -35.0797 40.5397
24.8217 -35.2337 40.4778
25.0816 -35.3658 40.3984
25.3216 -35.5347 40.3484
25.552 -35.7211 40.3124
25.8065 -35.8636 40.2412
26.063 -36.0027 40.1672
26.2938 -36.1886 40.1307
26.5838 -36.2669 40.0078
26.8157 -36.451 39.9697
27.0996 -36.5409 39.856
27.319 -36.7479 39.8363
27.581 -36.8777 39.7546
27.8236 -37.043 39.7013
28.1016 -37.1442 39.5964
28.3501 -37.299 39.5346
28.6386 -37.3817 39.4146
28.8654 -37.5758 39.3845
29.0914 -37.7715 39.3556
29.368 -37.8763 39.2532
29.5987 -38.0636 39.2175
29.8954 -38.1327 39.0862
30.1189 -38.3333 39.0611
30.3518 -38.5168 39.0223
30.6539 -38.577 38.8835
30.8857 -38.7626 38.8463
31.2319 -38.745 38.6443
31.4488 -38.9575 38.6287
31.7425 -39.0338 38.5026
31.9834 -39.2042 38.4528
32.2556 -39.3188 38.3578
32.5336 -39.4237 38.2547
32.7665 -39.6084 38.2164
33.0975 -39.62 38.0374
33.3936 -39.6936 37.9086
33.5892 -39.9444 37.924
33.8728 -40.0405 37.8134
34.1333 -40.1773 37.7359
34.4096 -40.2865 37.6359
34.6796 -40.4071 37.545
34.9588 -40.5118 37.4411
35.2523 -40.5916 37.3169
35.4296 -40.8747 37.3585
35.7923 -40.8342 37.1358
36.0594 -40.9608 37.0496
36.3533 -41.0411 36.9253
36.6222 -41.1652 36.8368
36.8521 -41.357 36.8037
37.1204 -41.4822 36.7161
37.4606 -41.4832 36.5266
37.743 -41.5846 36.4192
38.0323 -41.6744 36.3023
38.2802 -41.8359 36.244
38.6119 -41.8531 36.0674
38.7609 -42.1852 36.1491
39.1486 -42.1067 35.8936
39.4137 -42.2392 35.8113
39.6506 -42.4203 35.769
39.9155 -42.5536 35.6873
40.3093 -42.4666 35.4241
40.5956 -42.5638 35.3125
40.889 -42.6493 35.191
41.137 -42.8125 35.1336
41.3525 -43.031 35.1218
41.5859 -43.2189 35.0848
42.4811 -43.453 34.701
42.8882 -43.3477 34.4212
43.191 -43.4194 34.2877
43.451 -43.5637 34.2142
43.74 -43.6592 34.1001
43.9834 -43.8319 34.05
44.2351 -43.9906 33.9882
44.6384 -43.8946 33.7152
44.9098 -44.0208 33.6262
45.1898 -44.1327 33.5254
46.2027 -44.1813 32.9837
46.5057 -44.2562 32.8516
46.8319 -44.2926 32.6874
47.0645 -44.4852 32.6531
47.3521 -44.5865 32.5427
47.5675 -44.8079 32.5324
47.942 -44.7655 32.3021
48.2766 -44.7897 32.1271
49.1795 -45.0314 31.7427
50.8306 -45.2004 30.9041
51.1714 -45.2181 30.7224
51.5086 -45.2421 30.5458
51.8638 -45.2371 30.3449
52.1194 -45.3954 30.2807
52.3911 -45.5273 30.1944
52.8158 -45.4104 29.8989
53.0735 -45.5657 29.832
53.3877 -45.6296 29.6882
-15.006 28.3488 30.6762
-14.8711 27.9072 30.821
-14.593 27.8134 30.7125
-14.5614 27.1225 31.039
-14.5039 26.4957 31.3192
-14.2763 26.2806 31.2993
-14.1427 25.8387 31.4449
-14.142 25.0779 31.8234
-14.0399 24.562 32.0235
-13.8157 24.3405 32.0087
-13.6838 23.8974 32.1558
-13.4362 23.7321 32.1001
-13.5114 22.795 32.6087
-13.2415 22.6837 32.5136
-13.4269 21.4865 33.2133
-13.1838 21.3123 33.1644
-13.1679 20.5978 33.5114
-12.821 20.6708 33.2816
-12.8885 19.7603 33.7727
-12.6943 19.4713 33.8083
-12.5871 18.9772 33.9946
-12.3563 18.7755 33.9663
-12.0842 18.6711 33.8666
-11.8627 18.4475 33.8543
-11.7242 18.0285 33.9858
-11.5657 17.6571 34.0823
-11.6406 16.7386 34.5815
-11.5399 16.2336 34.7768
-11.3516 15.9341 34.821
-11.1771 15.6028 34.8886
-10.945 15.4062 34.8571
-10.7019 15.2351 34.8067
-10.4816 15.0109 34.7955
-10.2683 14.7705 34.7962
-11.0001 12.3369 36.4164
-10.9532 11.7142 36.7003
-10.8744 11.1661 36.9293
-10.7725 10.6726 37.1182
-10.7245 10.0553 37.3989
-10.5522 9.7257 37.4669
-10.4139 9.3182 37.5927
-10.2607 8.9456 37.6928
-10.0774 8.6424 37.7415
-9.9168 8.2875 37.8287
-9.6863 8.0929 37.797
-9.4897 7.8208 37.8228
-9.2964 7.5416 37.854
-9.0939 7.2833 37.8697
-8.8999 7.0058 37.8997
-8.6981 6.7463 37.9163
-8.4834 6.5164 37.911
-8.2781 6.2651 37.9217
-8.0697 6.021 37.9269
-7.858 5.7843 37.9267
-7.6369 5.569 37.9106
-7.4214 5.3415 37.9036
-7.1997 5.1276 37.8864
-6.9841 4.9001 37.8794
-6.787 4.6311 37.9034
-6.6025 4.334 37.9485
-6.6815 3.4465 38.4345
-6.4987 3.147 38.4816
-6.2895 2.9065 38.4847
-6.0958 2.6318 38.5134
-5.8805 2.4053 38.5061
-5.6948 2.1127 38.5482
-5.4962 1.8493 38.5686
-5.29 1.6029 38.5762
-5.0636 1.4016 38.5501
-4.8616 1.146 38.5647
-4.6326 0.9504 38.5343
-4.4303 0.6957 38.5483
-4.2364 0.4226 38.576
-4.3181 -0.4574 39.0598
-4.2426 -0.9898 39.2829
-4.1127 -1.4017 39.4154
-3.8892 -1.6078 39.3933
-3.7128 -1.917 39.4488
-3.5533 -2.2629 39.5321
-3.4155 -2.656 39.651
-3.2197 -2.9219 39.6741
-3.0324 -3.2061 39.7111
-2.9166 -3.6459 39.8655
-2.6743 -3.8099 39.8119
-2.4554 -4.0249 39.7968
-2.2627 -4.2966 39.8246
-2.1602 -4.7636 40.0
-1.9111 -4.9128 39.9352
-1.698 -5.1396 39.9292
-1.5953 -5.6049 40.1036
-1.3463 -5.754 40.0388
-1.2119 -6.15 40.161
-1.0733 -6.5365 40.2761
-0.8636 -6.7698 40.2753
-0.6355 -6.9637 40.2445
-0.4708 -7.2932 40.3167
-0.3234 -7.6595 40.4169
-0.1168 -7.8988 40.4207
0.0829 -8.1529 40.4358
0.2776 -8.4173 40.4587
0.4293 -8.7732 40.5513
0.6616 -8.9574 40.5133
0.8111 -9.3172 40.609
1.0324 -9.5248 40.5889
1.1764 -9.8956 40.6932
1.387 -10.1254 40.69
1.4923 -10.5771 40.8562
1.702 -10.8084 40.8543
1.8678 -11.132 40.9228
2.0804 -11.3568 40.9161
2.2497 -11.6725 40.9788
2.4691 -11.8827 40.961
2.665 -12.1422 40.9808
2.8204 -12.4864 41.0655
2.9894 -12.8016 41.1281
3.1735 -13.0852 41.1665
3.4731 -13.1278 41.0205
3.5921 -13.5466 41.1626
3.837 -13.7034 41.104
3.9886 -14.0538 41.1938
4.0802 -14.5281 41.3788
4.3747 -14.5819 41.2412
4.4842 -15.0183 41.3973
4.7511 -15.1293 41.3036
4.8917 -15.5009 41.4101
5.095 -15.7429 41.4171
5.3175 -15.9453 41.3937
5.4733 -16.2848 41.4757
5.6887 -16.5016 41.4634
5.8734 -16.7812 41.4995
6.0256 -17.1273 41.5869
6.231 -17.3641 41.59
6.4561 -17.5606 41.5622
6.6352 -17.8511 41.6068
6.7565 -18.259 41.7422
6.9435 -18.5326 41.774
7.1841 -18.6972 41.7216
7.3978 -18.9165 41.7115
7.486 -19.3899 41.8979
7.7805 -19.4454 41.7611
7.997 -19.6589 41.7465
8.2313 -19.8364 41.7042
8.3986 -20.1489 41.7662
8.561 -20.4709 41.8358
8.7879 -20.6632 41.8049
8.9888 -20.9075 41.8144
9.2063 -21.1185 41.798
9.4479 -21.2812 41.744
9.7017 -21.4196 41.6713
9.9415 -21.5862 41.6203
10.0448 -22.0249 41.781
10.3663 -22.0287 41.6034
10.5566 -22.2937 41.6291
10.5452 -22.9594 41.9668
10.7487 -23.1976 41.9717
10.9342 -23.4711 42.0043
11.1021 -23.7794 42.0639
11.3076 -24.0133 42.0657
11.5535 -24.1671 42.0049
11.7164 -24.4847 42.072
11.9135 -24.7348 42.0865
12.1684 -24.8709 42.0119
12.385 -25.0827 41.9964
12.5884 -25.3201 42.001
12.7687 -25.6027 42.0409
13.0025 -25.7804 41.9988
13.2038 -26.0219 42.0066
13.4197 -26.2344 41.9918
13.6252 -26.4673 41.993
13.8622 -26.639 41.9461
14.0706 -26.8663 41.9428
14.2956 -27.0612 41.9142
14.5004 -27.2953 41.9164
14.7215 -27.4977 41.8936
14.9383 -27.7084 41.8774
15.154 -27.9214 41.863
15.3614 -28.1501 41.8609
15.5866 -28.3447 41.832
15.797 -28.5677 41.8255
16.0182 -28.7699 41.8026
16.2396 -28.9718 41.7795
16.4742 -29.1482 41.7362
16.6814 -29.3771 41.7344
16.9128 -29.5598 41.6961
17.1326 -29.7646 41.6753
17.3701 -29.9358 41.6278
17.5869 -30.1463 41.6115
17.8163 -30.3328 41.5762
18.0525 -30.5066 41.5307
18.2727 -30.7107 41.5094
18.5222 -30.8593 41.444
18.7207 -31.1045 41.4551
18.9588 -31.2749 41.407
19.1814 -31.4744 41.3819
19.4143 -31.6547 41.3415
19.641 -31.8466 41.3104
19.8668 -32.0403 41.2806
20.1154 -32.1911 41.2168
20.3322 -32.4018 41.2006
20.5632 -32.5856 41.163
20.7867 -32.7838 41.1368
21.0329 -32.9394 41.0767
21.2713 -33.1097 41.0282
21.5141 -33.2718 40.9733
21.746 -33.4544 40.9345
21.9666 -33.6582 40.9128
22.2274 -33.787 40.8312
22.472 -33.9463 40.7738
22.7195 -34.1002 40.7121
22.9423 -34.2999 40.687
23.1959 -34.4427 40.6164
23.4203 -34.6397 40.5891
23.6498 -34.8271 40.5541
23.9393 -34.904 40.4306
24.1709 -35.088 40.3928
24.4237 -35.2329 40.3237
24.6578 -35.4122 40.282
24.9047 -35.5681 40.2217
25.1349 -35.7549 40.186
25.4076 -35.8638 40.0878
25.6306 -36.0637 40.0627
25.8992 -36.1805 39.9708
26.1238 -36.3777 39.9434
26.3934 -36.4929 39.8501
26.6556 -36.622 39.7678
26.9075 -36.7698 39.7006
27.1939 -36.8552 39.5831
27.4222 -37.0459 39.5504
27.6759 -37.1911 39.4809
27.9075 -37.3762 39.4436
28.1711 -37.5035 39.3596
28.4511 -37.6013 39.2518
28.6668 -37.8154 39.2378
28.9166 -37.968 39.1741
29.2132 -38.0368 39.0426
29.4639 -38.1881 38.9777
29.707 -38.3532 38.924
29.9515 -38.5159 38.8684
30.231 -38.6161 38.762
30.4895 -38.7541 38.6862
30.7603 -38.8704 38.5928
31.0201 -39.0063 38.5152
31.2675 -39.1646 38.4556
31.5544 -39.2528 38.3392
31.8245 -39.371 38.247
32.1134 -39.4561 38.1279
32.353 -39.6288 38.0799
32.6528 -39.6952 37.9454
32.9142 -39.8296 37.8662
33.1651 -39.9829 37.8022
33.4433 -40.0881 37.6991
33.7394 -40.1619 37.5703
33.9867 -40.3219 37.5117
34.2952 -40.3747 37.3655
34.5436 -40.533 37.3054
34.8053 -40.6683 37.2264
35.0912 -40.7612 37.1128
35.3314 -40.9344 37.0648
35.6246 -41.0154 36.9411
35.8436 -41.2256 36.9233
36.1746 -41.241 36.7459
36.4155 -41.4135 36.6971
36.7209 -41.4741 36.5565
37.0245 -41.5383 36.4187
37.2978 -41.6551 36.3241
37.5173 -41.8652 36.3059
37.8768 -41.8335 36.0891
38.1949 -41.8739 35.9315
38.458 -42.0093 35.8517
38.7192 -42.1482 35.7748
38.958 -42.3257 35.7296
39.2913 -42.341 35.5508
39.5551 -42.4761 35.4706
39.8328 -42.5875 35.3707
40.1998 -42.5463 35.1451
40.4031 -42.7855 35.1504
40.657 -42.9382 35.0844
40.9997 -42.9395 34.8934
41.2071 -43.1718 34.893
41.5265 -43.2136 34.7352
41.7744 -43.3772 34.678
42.1668 -43.2958 34.4181
42.4023 -43.4808 34.3785
42.7008 -43.5594 34.2507
43.056 -43.5423 34.0435
43.3017 -43.7107 33.9899
43.5461 -43.8816 33.9383
43.9173 -43.8386 33.7093
44.2432 -43.8725 33.544
44.4988 -44.0252 33.477
45.4284 -44.211 33.0496
45.7467 -44.2595 32.8957
46.1073 -44.2377 32.6832
46.2176 -44.6341 32.8187
46.5912 -44.5912 32.5884
46.816 -44.7966 32.5649
47.1525 -44.8164 32.3865
47.5116 -44.7989 32.177
47.867 -44.7882 31.9729
47.9942 -45.1561 32.0848
49.0732 -45.1061 31.4564
52.0434 -45.4207 29.9517
52.3719 -45.4601 29.7875
53.1634 -45.8962 29.5616
-15.3048 27.8266 30.7137
-14.9104 28.0155 30.3994
-14.943 27.1682 30.84
-14.8318 26.6707 31.0259
-14.7479 26.1079 31.2597
-14.4162 26.1445 31.0563
-14.4432 25.3153 31.4848
-14.1703 25.2104 31.3847
-14.2238 24.32 31.8585
-13.9856 24.1321 31.8192
-14.0369 23.2496 32.2878
-13.9438 22.7152 32.5023
-13.6828 22.5831 32.4224
-13.531 22.1897 32.5338
-13.6655 21.1142 33.1451
-13.3996 20.995 33.0561
-13.148 20.8411 32.9924
-13.3971 19.498 33.801
-13.2369 19.1286 33.8958
-12.9721 19.0079 33.8081
-12.7938 18.6821 33.871
-12.5001 18.6292 33.7334
-12.2646 18.4387 33.6969
-12.0557 18.1855 33.7065
-12.2716 16.9326 34.4517
-12.1303 16.5222 34.5773
-11.9991 16.0885 34.7204
-11.6666 16.1273 34.5154
-11.5523 15.6546 34.6872
-11.3172 15.4651 34.6505
-11.1548 15.1058 34.7389
-10.9785 14.7793 34.8033
-10.7358 14.608 34.7531
-10.8367 13.6375 35.2933
-11.2069 12.0439 36.2944
-11.0659 11.6394 36.4173
-10.9777 11.113 36.6305
-10.9048 10.5521 36.8694
-10.8574 9.9335 37.1513
-10.7109 9.5443 37.2635
-10.5554 9.1764 37.3601
-10.3904 8.8308 37.4403
-10.1929 8.5603 37.4649
-10.0095 8.2575 37.5134
-9.8009 8.0129 37.5189
-9.6217 7.7009 37.5744
-9.4108 7.4615 37.576
-9.2142 7.1899 37.6016
-9.0156 6.9231 37.6237
-8.811 6.6699 37.6357
-8.6044 6.4214 37.6442
-8.3945 6.1803 37.6472
-8.1777 5.9553 37.6383
-7.9683 5.7134 37.642
-7.7496 5.4928 37.6299
-7.556 5.2154 37.66
-7.3462 4.9749 37.6628
-7.1906 4.6124 37.7566
-7.2013 3.8764 38.1294
-7.0409 3.5262 38.2144
-6.8318 3.2853 38.2177
-6.6373 3.0118 38.2455
-6.4314 2.7642 38.2539
-6.2274 2.5123 38.2656
-6.0063 2.2988 38.2486
-5.8236 1.9998 38.2956
-5.6274 1.7309 38.3201
-5.4266 1.4725 38.3368
-5.2164 1.235 38.3377
-5.0067 0.9967 38.3394
-4.8155 0.7175 38.3718
-4.8371 -0.0317 38.7573
-4.7471 -0.5334 38.9572
-4.6994 -1.1272 39.2265
-4.4605 -1.2995 39.179
-4.2926 -1.6277 39.2488
-4.1185 -1.942 39.3083
-3.8617 -2.0747 39.2309
-3.7477 -2.5201 39.3893
-3.5021 -2.6775 39.3306
-3.3982 -3.144 39.5051
-3.2271 -3.4636 39.5688
-3.0009 -3.6629 39.5418
-2.8032 -3.924 39.5616
-2.5828 -4.1357 39.544
-2.4883 -4.6203 39.7328
-2.2975 -4.8957 39.7634
-2.1194 -5.1985 39.8149
-1.944 -5.5068 39.8707
-1.8357 -5.9596 40.0358
-1.6256 -6.1922 40.0344
-1.4376 -6.4724 40.0691
-1.2403 -6.7326 40.0886
-1.0339 -6.9727 40.093
-0.81 -7.1756 40.069
-0.6846 -7.5891 40.2051
-0.5269 -7.9332 40.2885
-0.3454 -8.2261 40.3331
-0.1961 -8.5871 40.4296
0.0748 -8.6891 40.3292
0.2786 -8.9338 40.3373
0.3922 -9.3702 40.4913
0.5762 -9.6566 40.5313
0.8084 -9.8404 40.4932
0.9456 -10.2255 40.6085
1.1344 -10.5011 40.6404
1.3007 -10.824 40.7084
1.5096 -11.0566 40.7077
1.6576 -11.4175 40.8049
1.9205 -11.5364 40.7173
2.1166 -11.7958 40.737
2.2394 -12.2086 40.8741
2.4183 -12.5035 40.9212
2.6473 -12.6933 40.8878
2.8336 -12.9723 40.9228
3.0157 -13.26 40.9645
3.2026 -13.5375 40.9984
3.3963 -13.8006 41.0213
3.5361 -14.1754 41.13
3.7638 -14.3675 41.0985
3.9477 -14.6502 41.1367
4.1256 -14.9452 41.1843
4.3702 -15.1021 41.1258
4.4824 -15.5325 41.2776
4.7042 -15.7364 41.2553
4.949 -15.8928 41.1965
5.0411 -16.3633 41.3795
5.2543 -16.5847 41.3707
5.4608 -16.8195 41.3724
5.634 -17.1224 41.4266
5.821 -17.3967 41.4587
6.0472 -17.591 41.4292
6.243 -17.8473 41.4475
6.4096 -18.1629 41.5117
6.6296 -18.3697 41.4919
6.783 -18.7116 41.5765
7.0082 -18.9075 41.5483
7.2288 -19.1127 41.5273
7.4084 -19.401 41.5706
7.5664 -19.7326 41.6476
7.8091 -19.8928 41.5918
7.9704 -20.2176 41.6636
8.1848 -20.4348 41.652
8.3661 -20.7185 41.692
8.6043 -20.888 41.6434
8.8274 -21.0875 41.6181
9.0566 -21.275 41.5836
9.3076 -21.4189 41.515
9.4569 -21.7662 41.6046
9.7619 -21.8022 41.4521
9.9885 -21.9951 41.4216
10.0143 -22.5879 41.7025
10.2775 -22.7073 41.6149
10.3345 -23.2369 41.847
10.5569 -23.4371 41.8224
10.7496 -23.6964 41.844
10.9076 -24.0243 41.9191
11.1357 -24.2131 41.8856
11.3184 -24.4918 41.9224
11.5369 -24.6994 41.9038
11.7396 -24.9383 41.9095
11.9705 -25.1215 41.8718
12.1893 -25.3287 41.8527
12.3765 -25.5977 41.8821
12.5907 -25.8138 41.8701
12.7999 -26.0395 41.8656
12.994 -26.2947 41.8843
13.22 -26.4875 41.854
13.4618 -26.6495 41.7996
13.6624 -26.8919 41.8083
13.855 -27.1497 41.8291
14.1009 -27.3039 41.7684
14.3136 -27.5224 41.7584
14.5532 -27.689 41.7075
14.7838 -27.8728 41.6702
14.9444 -28.1922 41.7396
15.1889 -28.3492 41.6811
15.4146 -28.5427 41.6514
15.621 -28.7732 41.6508
15.84 -28.9796 41.6313
16.0572 -29.1893 41.6143
16.3026 -29.3448 41.5546
16.4964 -29.5994 41.5731
16.7356 -29.7669 41.5229
16.9747 -29.9349 41.4729
17.197 -30.1347 41.4482
17.438 -30.2991 41.3954
17.6591 -30.5014 41.3726
17.8955 -30.6747 41.3267
18.0895 -30.9285 41.3447
18.3481 -31.0597 41.2655
18.5753 -31.2505 41.2336
18.7683 -31.5061 41.253
19.0115 -31.6665 41.1969
19.2534 -31.8298 41.143
19.4856 -32.0113 41.1037
19.7078 -32.2115 41.0792
19.9324 -32.4074 41.0512
20.1366 -32.6416 41.0537
20.4055 -32.7543 40.9595
20.6372 -32.9371 40.921
20.8633 -33.1302 40.8908
21.1298 -33.2478 40.8004
21.3538 -33.4451 40.7735
21.5607 -33.6741 40.7718
21.8174 -33.8105 40.6963
22.0661 -33.9619 40.6326
22.302 -34.137 40.5879
22.5334 -34.3206 40.55
22.771 -34.493 40.5031
23.0198 -34.6444 40.4393
23.2532 -34.8246 40.3986
23.4922 -34.9946 40.3496
23.7627 -35.1064 40.254
23.9909 -35.2964 40.2211
24.2464 -35.4361 40.1478
24.5001 -35.5794 40.0773
24.7349 -35.7575 40.0347
24.9814 -35.9142 39.9749
25.2414 -36.0464 39.8954
25.4865 -36.2058 39.8378
25.7152 -36.3954 39.8043
25.9416 -36.5892 39.7742
26.2129 -36.7011 39.6782
26.5102 -36.7661 39.5444
26.732 -36.9685 39.5211
26.992 -37.1016 39.442
27.2512 -37.2365 39.3642
27.4923 -37.4041 39.3129
27.7299 -37.5782 39.2667
28.0008 -37.6922 39.1719
28.2807 -37.7902 39.0642
28.5266 -37.9498 39.0062
28.7679 -38.1175 38.9548
29.0631 -38.1889 38.8252
29.3094 -38.348 38.7667
29.57 -38.4816 38.6875
29.7979 -38.674 38.6558
30.0719 -38.784 38.5574
30.3248 -38.9319 38.4896
30.5769 -39.0815 38.4231
30.8951 -39.1133 38.2609
31.1243 -39.3038 38.2276
31.407 -39.3993 38.1171
31.6527 -39.5609 38.0601
31.9593 -39.6145 37.9153
32.1994 -39.7863 37.8665
32.5043 -39.8435 37.7245
32.7796 -39.9533 37.6251
33.0134 -40.1365 37.5856
33.2617 -40.2944 37.5253
33.5438 -40.3928 37.4165
33.8183 -40.5048 37.3187
34.1332 -40.5462 37.1633
34.3719 -40.7215 37.117
35.2142 -41.0274 36.7981
35.4458 -41.2158 36.7624
35.7218 -41.3265 36.6631
36.0621 -41.3258 36.4723
36.3193 -41.4699 36.4002
36.6214 -41.5363 36.2643
36.8893 -41.6624 36.1771
37.131 -41.8339 36.1273
37.4763 -41.8264 35.9304
37.7336 -41.9714 35.8587
37.9659 -42.1596 35.8224
38.2978 -42.1764 35.6451
38.5545 -42.3229 35.5744
38.8354 -42.428 35.4696
39.1065 -42.55 35.3786
39.3707 -42.6842 35.2976
39.6583 -42.7785 35.1836
39.9118 -42.9314 35.1179
40.2501 -42.9394 34.9326
40.455 -43.1759 34.9357
40.8269 -43.1272 34.7033
41.0943 -43.2572 34.6184
41.3892 -43.3407 34.4949
41.6779 -43.435 34.3804
42.6134 -43.6018 33.94
42.8186 -43.8384 33.9429
43.1576 -43.849 33.7585
43.4051 -44.0145 33.7024
43.7315 -44.047 33.5359
44.0197 -44.1444 33.4231
44.4227 -44.0489 33.15
44.6851 -44.1903 33.0736
44.8909 -44.4266 33.076
45.8436 -44.5751 32.6168
46.2186 -44.5296 32.3843
46.5078 -44.6276 32.2711
46.7732 -44.7656 32.1913
47.0271 -44.9227 32.1274
47.4515 -44.7969 31.8273
51.1933 -45.5597 30.1125
51.5887 -45.4889 29.856
51.8694 -45.6061 29.7571
52.2803 -45.5109 29.4797
52.5696 -45.6147 29.3695
-15.5486 27.4379 30.6543
-15.3932 27.0469 30.7627
-15.3933 26.2791 31.1459
-15.086 26.2577 30.9849
-14.9999 25.7007 31.2147
-15.054 24.8056 31.6917
-14.9067 24.3985 31.8126
-14.4949 23.1081 32.2266
-14.3003 22.8169 32.2631
-14.0815 22.5838 32.2572
-13.8923 22.2799 32.3032
-14.0716 21.0957 32.9943
-13.7627 21.0795 32.8298
-13.7009 20.4734 33.0978
-13.6094 19.9394 33.3131
-13.5814 19.2553 33.6389
-13.3574 19.0378 33.6223
-13.1132 18.8679 33.5707
-12.7925 18.8792 33.3858
-12.6972 18.357 33.5932
-12.6286 17.7729 33.8463
-12.7545 16.7312 34.4365
-12.4325 16.7461 34.2491
-12.3368 16.2285 34.454
-12.102 16.038 34.4179
-11.8504 15.8871 34.3526
-11.7191 15.4544 34.4952
-11.5473 15.1172 34.5675
-11.3231 14.9024 34.5494
-11.1026 14.6791 34.5377
-10.7585 14.7435 34.3132
-11.3251 12.6896 35.6548
-11.3263 11.9537 36.0226
-11.2468 11.4064 36.2513
-11.1982 10.7885 36.5325
-11.0856 10.3196 36.7036
-10.9724 9.8529 36.8733
-10.8318 9.45 36.9957
-10.6653 9.1074 37.0737
-10.4909 8.7834 37.1379
-10.314 8.4651 37.1979
-10.1287 8.1668 37.2432
-9.92 7.9224 37.2485
-9.7275 7.6408 37.2815
-9.5214 7.3904 37.2913
-9.3251 7.118 37.3175
-9.1309 6.8411 37.3471
-8.9212 6.5995 37.3505
-8.7138 6.3526 37.3578
-8.5042 6.111 37.3613
-8.2921 5.875 37.3605
-8.0773 5.6456 37.3549
-7.8751 5.3873 37.3709
-7.7011 5.0658 37.434
-7.7744 4.1869 37.9136
-7.5822 3.9077 37.9454
-7.3895 3.63 37.9763
-7.1842 3.3804 37.9862
-6.9775 3.1343 37.9935
-6.7757 2.8774 38.0089
-6.5562 2.66 37.9947
-6.3421 2.4308 37.9894
-6.112 2.2372 37.9574
-5.9231 1.9518 37.9942
-5.7759 1.5739 38.1005
-5.5676 1.3322 38.1047
-5.3931 1.0156 38.1651
-5.4493 0.1882 38.6094
-5.3382 -0.2676 38.7747
-5.2511 -0.7754 38.9794
-4.9838 -0.885 38.8848
-4.8594 -1.3095 39.027
-4.6573 -1.5625 39.0403
-4.4753 -1.8598 39.0869
-4.236 -2.0307 39.0384
-4.1405 -2.5172 39.2278
-3.9746 -2.8488 39.3005
-3.8404 -3.2493 39.4253
-3.5786 -3.3706 39.3395
-3.4139 -3.7039 39.4138
-3.2646 -4.0704 39.5132
-3.054 -4.3031 39.5116
-2.9041 -4.6676 39.6096
-2.6824 -4.8758 39.5896
-2.4926 -5.1533 39.6219
-2.3478 -5.5279 39.7279
-2.1397 -5.7653 39.73
-1.8914 -5.9156 39.6662
-1.8175 -6.4422 39.8877
-1.6363 -6.7369 39.9334
-1.3729 -6.8547 39.845
-1.2366 -7.2455 39.9637
-1.0273 -7.4793 39.9633
-0.8749 -7.8349 40.0556
-0.6971 -8.1357 40.1063
-0.5148 -8.4267 40.1496
-0.3095 -8.6684 40.1554
-0.0959 -8.8923 40.1477
0.0159 -9.3327 40.3049
0.1697 -9.6834 40.3939
0.319 -10.0432 40.4899
0.5606 -10.2068 40.4365
0.7513 -10.4783 40.4653
0.9461 -10.7411 40.4875
1.1285 -11.0298 40.5296
1.3463 -11.2436 40.5145
1.5337 -11.5216 40.5485
1.7287 -11.783 40.5698
1.9408 -12.0087 40.5638
2.0613 -12.4264 40.7048
2.3236 -12.5464 40.6181
2.4144 -13.0256 40.8064
2.6802 -13.1382 40.7139
2.8308 -13.4913 40.8059
3.0054 -13.7944 40.8595
3.2225 -14.0086 40.8449
3.4282 -14.2463 40.8485
3.5377 -14.6839 41.0056
3.7035 -15.0039 41.0725
3.8894 -15.2821 41.1074
4.1627 -15.3793 41.003
4.3227 -15.7108 41.0789
4.488 -16.0312 41.1464
4.6859 -16.284 41.1618
4.8644 -16.5765 41.2079
5.0556 -16.8428 41.2339
5.2293 -17.1446 41.2873
5.4371 -17.3764 41.2867
5.6297 -17.6394 41.3102
5.8414 -17.8632 41.3035
6.0371 -18.1192 41.3217
6.2042 -18.4336 41.3851
6.4086 -18.672 41.3898
6.6325 -18.8704 41.3636
6.8272 -19.1281 41.3831
7.0083 -19.4133 41.4242
7.1995 -19.6779 41.4492
7.3891 -19.9454 41.4766
7.5826 -20.205 41.4979
7.8484 -20.3184 41.4059
7.9726 -20.7175 41.5354
8.1926 -20.9233 41.5151
8.4527 -21.0484 41.432
8.6164 -21.3672 41.4995
8.8757 -21.4941 41.4178
9.0865 -21.7182 41.4117
9.3741 -21.7887 41.286
9.6014 -21.9802 41.2544
9.6743 -22.4794 41.4626
9.9017 -22.6701 41.4305
10.0282 -23.0619 41.5553
10.1019 -23.5579 41.7614
10.3292 -23.7483 41.7293
10.5578 -23.9361 41.6951
10.7332 -24.2294 41.7433
10.9387 -24.4629 41.7448
11.1403 -24.7037 41.7521
11.3714 -24.8865 41.714
11.5673 -25.1387 41.7302
11.7725 -25.3725 41.7321
11.9975 -25.5672 41.7034
12.1989 -25.8083 41.7109
12.4094 -26.0314 41.7045
12.6252 -26.2442 41.6899
12.8335 -26.4714 41.6867
13.0521 -26.6786 41.6677
13.2653 -26.8963 41.657
13.4698 -27.1309 41.6597
13.684 -27.3464 41.6473
13.9022 -27.5543 41.6289
14.1214 -27.76 41.6089
14.3583 -27.9317 41.562
14.5951 -28.1036 41.5153
14.7775 -28.3806 41.5514
15.0043 -28.5716 41.5197
15.2041 -28.8148 41.5293
15.4178 -29.0312 41.5177
15.6738 -29.1661 41.4418
15.8954 -29.3673 41.4181
16.1116 -29.5787 41.4026
16.3263 -29.7931 41.3894
16.5583 -29.9743 41.3499
16.774 -30.1868 41.3352
16.9982 -30.383 41.3076
17.234 -30.5571 41.2625
17.4544 -30.7606 41.2408
17.6901 -30.9349 41.1958
17.9225 -31.1156 41.1559
18.1514 -31.303 41.1212
18.3848 -31.4818 41.0798
18.6359 -31.6274 41.0119
18.8607 -31.8227 40.9836
19.051 -32.0831 41.0069
19.2667 -32.2955 40.9921
19.5437 -32.3924 40.8855
19.7667 -32.5913 40.8599
20.0044 -32.7624 40.8122
20.2515 -32.9161 40.7506
20.4493 -33.1623 40.7627
20.6977 -33.3135 40.6991
20.9282 -33.4983 40.6622
21.1777 -33.6477 40.5971
21.4288 -33.7943 40.5297
21.622 -34.0488 40.5485
21.9059 -34.1346 40.4324
22.1175 -34.3548 40.4238
22.3846 -34.472 40.3328
22.609 -34.6686 40.3052
22.8587 -34.8186 40.2403
23.0869 -35.0083 40.2071
23.3398 -35.1523 40.1374
23.5672 -35.3436 40.1056
23.8041 -35.5174 40.0596
24.0674 -35.6427 39.9747
24.3308 -35.7679 39.8898
24.5555 -35.9644 39.862
24.8458 -36.0406 39.7375
25.082 -36.2163 39.6929
25.312 -36.4033 39.6574
25.5509 -36.5742 39.6089
25.8241 -36.6825 39.51
26.0497 -36.8777 39.4811
26.3465 -36.9436 39.3478
26.5614 -37.1585 39.3346
26.8096 -37.3129 39.2728
27.0842 -37.4196 39.1723
27.3193 -37.5979 39.1295
27.6035 -37.6877 39.0152
27.8514 -37.8432 38.9539
28.1078 -37.9836 38.8805
28.3238 -38.1968 38.8658
28.6202 -38.2655 38.7342
28.8986 -38.3666 38.6287
29.1561 -38.5056 38.5539
29.3908 -38.6858 38.5124
29.6564 -38.8104 38.4258
29.9198 -38.9394 38.3427
30.1498 -39.1281 38.308
30.442 -39.2059 38.1832
30.6961 -39.3518 38.1137
30.9863 -39.4338 37.9921
31.2425 -39.5763 37.9197
31.4848 -39.7438 37.8676
31.7911 -39.7978 37.723
32.0276 -39.9759 37.6794
32.3286 -40.0399 37.5428
32.6499 -40.0684 37.3771
32.9189 -40.1894 37.2868
33.1673 -40.347 37.2263
33.4157 -40.5049 37.166
33.7025 -40.5953 37.0504
33.971 -40.7181 36.9613
34.2176 -40.8795 36.9038
34.4848 -41.0049 36.8166
34.7855 -41.0719 36.6817
35.0331 -41.2319 36.6227
35.3156 -41.3314 36.5142
35.596 -41.4345 36.4086
35.8248 -41.6279 36.3769
36.1894 -41.585 36.1513
36.4422 -41.737 36.0855
36.7037 -41.8739 36.0074
37.0039 -41.9441 35.8743
37.2771 -42.0612 35.7796
37.5386 -42.1988 35.7018
37.8177 -42.3061 35.599
38.203 -42.2305 35.3456
38.3712 -42.5296 35.4004
38.7024 -42.548 35.2241
38.9839 -42.6522 35.1184
39.2124 -42.8478 35.088
39.5037 -42.9357 34.9687
39.7722 -43.0627 34.8816
40.1458 -43.0104 34.6463
40.2911 -43.3486 34.7335
40.64 -43.339 34.5333
40.9361 -43.42 34.4078
41.7987 -43.7084 34.0685
42.1613 -43.6777 33.8501
42.4458 -43.7801 33.7418
43.2743 -44.1303 33.4523
43.5784 -44.2003 33.3168
43.9758 -44.1137 33.0511
44.2236 -44.2794 32.9949
44.4712 -44.4454 32.9389
44.8822 -44.3375 32.6549
45.1427 -44.4824 32.5812
45.4282 -44.5858 32.4728
45.7785 -44.5809 32.2742
46.0967 -44.6303 32.1206
46.3967 -44.7101 31.9922
47.1408 -45.2111 31.8251
47.5928 -45.0398 31.4865
51.1798 -45.4827 29.6977
51.4757 -45.5747 29.5778
51.8141 -45.5974 29.3995
52.0071 -45.8581 29.4212
-15.6757 27.333 30.3883
-15.8565 26.125 31.0929
-15.4273 26.3999 30.7156
-15.3943 25.7135 31.04
-15.2458 25.3079 31.1596
-15.2965 24.4213 31.6309
-15.0715 24.2021 31.6146
-15.0139 23.5793 31.8935
-14.7016 23.5706 31.7233
-14.6615 22.9075 32.0321
-14.3611 22.8702 31.8828
-14.261 22.3523 32.0855
-14.3254 21.4416 32.5765
-14.0773 21.2796 32.5187
-14.2647 20.0782 33.2236
-14.1505 19.5983 33.3995
-13.962 19.296 33.4451
-13.7236 19.1127 33.4034
-13.4696 18.9663 33.3345
-13.1857 18.8909 33.2134
-12.9316 18.7442 33.1446
-12.9267 18.0083 33.5095
-13.0666 16.9319 34.1254
-12.9775 16.3979 34.3424
-12.6881 16.3364 34.2113
-12.5716 15.868 34.3801
-12.3331 15.6867 34.3373
-12.1527 15.3691 34.3951
-11.9085 15.2013 34.3424
-11.6819 14.9922 34.3201
-11.4915 14.6986 34.3603
-11.2191 14.5966 34.2589
-10.9245 14.5457 34.1196
-11.5293 12.4025 35.5284
-11.4728 11.8005 35.7975
-11.4149 11.2031 36.0636
-11.3357 10.656 36.2926
-11.249 10.1272 36.5082
-11.085 9.7779 36.5909
-10.9496 9.363 36.7225
-10.7982 8.9853 36.8265
-10.6068 8.7004 36.8618
-10.3987 8.454 36.8685
-10.2249 8.129 36.9336
-10.0343 7.843 36.9699
-9.8343 7.5784 36.9902
-9.6376 7.3067 37.0159
-9.4415 7.0338 37.0426
-9.2422 6.7682 37.0638
-9.0339 6.5232 37.0696
-8.8274 6.2746 37.0783
-8.6246 6.0174 37.0934
-8.4398 5.7196 37.1388
-8.2933 5.3353 37.2488
-8.0855 5.0901 37.2551
-8.1096 4.3215 37.6525
-7.9257 4.0232 37.6986
-7.7298 3.7524 37.7243
-7.5142 3.526 37.7168
-7.3044 3.2868 37.7189
-7.1159 2.9998 37.7568
-6.8662 2.8501 37.6919
-6.674 2.5715 37.7236
-6.4462 2.3728 37.6954
-6.2199 2.1708 37.6698
-6.1368 1.6496 37.8836
-6.1611 0.8902 38.2765
-6.0617 0.4071 38.4622
-5.8915 0.0822 38.5293
-5.6816 -0.1546 38.5301
-5.5048 -0.4646 38.5861
-5.2945 -0.7001 38.586
-5.2262 -1.2493 38.8221
-5.03 -1.5153 38.8453
-4.8197 -1.7503 38.845
-4.6553 -2.0859 38.9206
-4.5474 -2.5454 39.0898
-4.345 -2.7969 39.1022
-4.1897 -3.1515 39.1924
-3.8918 -3.1937 39.0469
-3.7899 -3.6646 39.2251
-3.6155 -3.9763 39.2832
-3.5009 -4.4184 39.4398
-3.2607 -4.5865 39.3895
-3.0165 -4.7458 39.3324
-2.8779 -5.1346 39.4491
-2.7168 -5.4739 39.5284
-2.5671 -5.8378 39.6264
-2.3051 -5.9583 39.54
-2.1656 -6.3434 39.6542
-1.9621 -6.5902 39.6637
-1.8125 -6.9531 39.7613
-1.6316 -7.248 39.8074
-1.4312 -7.5009 39.8215
-1.243 -7.7796 39.8554
-1.0796 -8.1115 39.9298
-0.8895 -8.3859 39.9604
-0.6843 -8.6278 39.9664
-0.584 -9.0935 40.1429
-0.3351 -9.2419 40.0778
-0.247 -9.7323 40.2734
0.0203 -9.8414 40.1783
0.2368 -10.0585 40.1656
0.3836 -10.4233 40.2657
0.5523 -10.7412 40.33
0.7349 -11.0295 40.3718
0.9478 -11.2537 40.3647
1.1199 -11.5638 40.4233
1.2509 -11.9602 40.5479
1.4721 -12.1662 40.527
1.6513 -12.4606 40.5738
1.8907 -12.6285 40.5237
2.1086 -12.8414 40.5081
2.2649 -13.1831 40.5912
2.4452 -13.4745 40.6359
2.5985 -13.8219 40.7235
2.7999 -14.0686 40.734
3.0258 -14.2642 40.7053
3.2092 -14.5484 40.7446
3.4038 -14.8089 40.7658
3.5718 -15.1245 40.8294
3.7518 -15.4148 40.8736
3.956 -15.6551 40.8794
4.1159 -15.9864 40.9553
4.2595 -16.3513 41.0571
4.5012 -16.5137 41.003
4.7088 -16.7462 41.0029
4.8804 -17.0527 41.0599
5.03 -17.4039 41.1516
5.2637 -17.5825 41.11
5.477 -17.8029 41.1007
5.6763 -18.0519 41.1135
5.8572 -18.3383 41.1552
6.0608 -18.5782 41.1611
6.2708 -18.8049 41.1567
6.4322 -19.1305 41.229
6.6195 -19.4032 41.2604
6.8203 -19.6481 41.2703
6.9837 -19.9689 41.339
7.2019 -20.1783 41.3214
7.4136 -20.4008 41.314
7.6378 -20.5982 41.2871
7.8068 -20.9068 41.3466
8.0354 -21.0952 41.3127
8.2144 -21.3833 41.3564
8.4775 -21.5023 41.2686
8.644 -21.8153 41.3316
8.9079 -21.9328 41.2426
9.1618 -22.0705 41.1692
9.324 -22.3916 41.2388
9.5838 -22.5177 41.1563
9.6433 -23.0433 41.3854
9.8624 -23.2501 41.366
9.9562 -23.7062 41.5413
10.1384 -23.9862 41.5791
10.3625 -24.1827 41.5517
10.5471 -24.4576 41.5856
10.7256 -24.7443 41.6289
10.9807 -24.8795 41.5536
11.1708 -25.1429 41.5786
11.3792 -25.3705 41.5756
11.6183 -25.5374 41.5251
11.8228 -25.7722 41.5278
12.0265 -26.0086 41.5318
12.2408 -26.2243 41.5196
12.455 -26.44 41.5074
12.6518 -26.6896 41.5217
12.8647 -26.9079 41.5115
13.0706 -27.1396 41.512
13.2917 -27.3415 41.489
13.5097 -27.5498 41.4709
13.7239 -27.7652 41.4585
13.9286 -27.9991 41.4607
14.1585 -28.1841 41.4243
14.381 -28.3833 41.3992
14.6002 -28.589 41.3792
14.8237 -28.7863 41.3526
15.0226 -29.0311 41.3634
15.2337 -29.2525 41.3557
15.5047 -29.3582 41.2567
15.717 -29.5772 41.2472
15.899 -29.8544 41.2837
16.1463 -30.0059 41.2208
16.3598 -30.2224 41.2093
16.5947 -30.398 41.1655
16.8275 -30.5778 41.1249
17.0491 -30.7788 41.1012
17.2778 -30.9662 41.0666
17.4965 -31.1727 41.0473
17.7356 -31.3406 40.9972
17.9689 -31.5195 40.9559
18.1914 -31.719 40.9308
18.4293 -31.8892 40.8825
18.6613 -32.0706 40.8432
18.8958 -32.2474 40.8002
19.1186 -32.4464 40.7747
19.3577 -32.6147 40.7248
19.5907 -32.7944 40.684
19.8065 -33.0066 40.6691
20.044 -33.1782 40.6218
20.2762 -33.3596 40.5823
20.526 -33.5082 40.5166
20.7658 -33.6755 40.4658
20.9925 -33.8673 40.4345
21.2293 -34.0404 40.3883
21.4583 -34.2283 40.3538
21.7118 -34.3703 40.2828
21.9582 -34.5257 40.2223
22.2208 -34.6514 40.138
22.4501 -34.8389 40.1031
22.6912 -35.0044 40.0507
22.9353 -35.1646 39.9939
23.1767 -35.3298 39.9412
23.4337 -35.4664 39.8654
23.6717 -35.6381 39.8178
23.8926 -35.8414 39.7955
24.1948 -35.8954 39.6532
24.4388 -36.0563 39.5968
24.6608 -36.2579 39.5731
24.8922 -36.4421 39.5354
25.1522 -36.5742 39.4557
25.3873 -36.7517 39.4126
25.654 -36.8718 39.3231
25.9201 -36.9932 39.2347
26.1583 -37.1655 39.1872
26.4037 -37.325 39.1294
26.673 -37.4409 39.0363
26.9297 -37.5801 38.9621
27.1691 -37.7506 38.913
27.4299 -37.8825 38.8327
27.6905 -38.0151 38.7529
27.9452 -38.1585 38.6818
28.1853 -38.3281 38.6319
28.4508 -38.4523 38.5452
28.7195 -38.5709 38.4538
28.9429 -38.771 38.4285
29.2474 -38.8256 38.2852
29.5101 -38.9556 38.2029
29.7665 -39.0968 38.1297
30.0209 -39.2419 38.0595
30.3026 -39.3385 37.9499
30.5557 -39.4863 37.8819
30.7923 -39.6635 37.8377
31.1114 -39.6939 37.6741
31.3589 -39.8521 37.6144
31.619 -39.9882 37.5366
31.8705 -40.1395 37.4711
32.1671 -40.2112 37.3407
32.4317 -40.3397 37.2567
32.7461 -40.3804 37.1008
32.9705 -40.5804 37.0748
33.2195 -40.7369 37.0134
33.5181 -40.8065 36.8808
33.814 -40.8809 36.7521
34.0385 -41.081 36.7262
34.3724 -41.0893 36.5432
34.6051 -41.2753 36.5056
34.9227 -41.3131 36.3465
35.1959 -41.4287 36.251
35.4482 -41.5808 36.1855
35.7157 -41.7067 36.0985
36.5527 -42.0256 35.7885
36.8434 -42.1119 35.6687
37.2028 -42.0798 35.4512
37.4263 -42.2832 35.4274
37.7253 -42.3562 35.2963
38.0421 -42.3988 35.14
38.1856 -42.7404 35.23
38.5655 -42.6748 34.9844
38.8701 -42.7394 34.8459
39.1289 -42.8828 34.7723
39.3685 -43.0594 34.7262
39.6522 -43.1604 34.6175
40.0136 -43.1288 34.3992
40.2707 -43.276 34.3285
40.4927 -43.4832 34.3074
40.7685 -43.5987 34.2105
41.122 -43.5824 34.0042
41.3271 -43.8185 34.0071
41.7261 -43.7257 33.7371
41.959 -43.915 33.701
42.3141 -43.8974 33.4932
42.5854 -44.0222 33.4033
42.9049 -44.0657 33.2459
43.084 -44.3465 33.2856
43.4219 -44.3595 33.1027
43.7046 -44.4659 32.9973
43.9291 -44.6703 32.9734
44.3099 -44.6123 32.731
45.3188 -44.6654 32.1918
45.5406 -44.8754 32.1723
45.8479 -44.9426 32.0336
46.2584 -44.8381 31.7512
51.2931 -45.7743 29.3953
51.6208 -45.8145 29.2316
51.8751 -45.9748 29.169
-16.1399 27.1769 30.3366
-15.8766 27.0486 30.2534
-15.815 26.4294 30.5286
-15.5032 24.887 31.1254
-15.4954 24.1419 31.4937
-15.2021 24.088 31.3564
-15.136 23.4856 31.6207
-15.0658 22.8942 31.8772
-14.8086 22.7534 31.8037
-14.6156 22.4585 31.8431
-14.6109 21.712 32.2138
-14.654 20.8529 32.6675
-14.7347 19.9056 33.1864
-14.4712 19.782 33.1007
-14.297 19.4455 33.1715
-14.0952 19.1749 33.1939
-13.8453 19.0188 33.1322
-13.5856 18.8862 33.053
-13.294 18.8289 32.9185
-13.2394 18.2097 33.1977
-13.4797 16.894 33.99
-13.3764 16.3933 34.1826
-13.2033 16.0578 34.2535
-12.8209 16.2157 33.9605
-12.6193 15.9475 33.9818
-12.4692 15.5583 34.0924
-12.3183 15.1717 34.2013
-12.3223 14.4222 34.5783
-11.9408 14.5765 34.2876
-11.658 14.4993 34.1679
-11.6256 12.3662 35.2165
-11.5937 11.7069 35.5283
-11.527 11.1297 35.7796
-11.5046 10.4508 36.1065
-11.3244 10.1385 36.1618
-11.2305 9.6268 36.3652
-11.0723 9.2645 36.4577
-10.893 8.9512 36.514
-10.7025 8.6641 36.5509
-10.5271 8.3423 36.6137
-10.3228 8.0874 36.6268
-10.1458 7.7701 36.6864
-9.9503 7.4952 36.7144
-9.7373 7.2607 36.7124
-9.541 6.9879 36.7389
-9.3502 6.703 36.7746
-9.149 6.4418 36.7926
-8.9377 6.2038 36.7933
-8.8778 5.6221 37.0507
-8.851 4.9662 37.3636
-8.6705 4.6598 37.4158
-8.4445 4.4567 37.3908
-8.274 4.1279 37.4598
-8.0778 3.8577 37.4851
-7.8566 3.6439 37.4681
-7.6402 3.4193 37.4593
-7.4279 3.1856 37.4573
-7.2167 2.9495 37.4571
-7.028 2.663 37.4947
-6.8134 2.4348 37.4887
-6.5882 2.2303 37.4649
-6.4992 1.7218 37.6693
-6.6216 0.7429 38.2273
-6.4355 0.4527 38.2682
-6.2256 0.2156 38.2692
-6.0571 -0.1129 38.3391
-5.8826 -0.4283 38.3991
-5.6673 -0.6527 38.3908
-5.424 -0.8152 38.3359
-5.3278 -1.3026 38.5257
-5.2172 -1.7577 38.6913
-5.085 -2.1645 38.8207
-4.8058 -2.2473 38.7058
-4.7538 -2.8297 38.9678
-4.5167 -3.0047 38.9226
-4.3601 -3.3563 39.0106
-4.1315 -3.55 38.9795
-3.9257 -3.7936 38.9862
-3.7632 -4.1314 39.064
-3.66 -4.5983 39.2397
-3.4255 -4.7786 39.1985
-3.2387 -5.0626 39.2359
-3.104 -5.4596 39.359
-2.9219 -5.7532 39.4038
-2.7084 -5.9789 39.3971
-2.5605 -6.3459 39.4977
-2.3737 -6.6288 39.5346
-2.2063 -6.9531 39.603
-2.0287 -7.2554 39.6547
-1.7876 -7.4205 39.6022
-1.6759 -7.8639 39.7613
-1.4288 -8.0162 39.6992
-1.2412 -8.296 39.734
-1.0308 -8.5268 39.7316
-0.9373 -9.0075 39.9195
-0.6897 -9.1584 39.8563
-0.5093 -9.4526 39.9023
-0.401 -9.9004 40.0656
-0.212 -10.1758 40.0974
-0.0293 -10.4641 40.1392
0.181 -10.694 40.1364
0.3643 -10.981 40.1772
0.5383 -11.2872 40.2328
0.7069 -11.6048 40.2972
0.9186 -11.8311 40.2918
1.1158 -12.0878 40.3097
1.3262 -12.3165 40.3062
1.491 -12.6412 40.3762
1.7052 -12.8618 40.3665
1.7974 -13.338 40.5529
2.0317 -13.5162 40.5108
2.2388 -13.7511 40.5123
2.4743 -13.9268 40.4682
2.6422 -14.2434 40.5325
2.8459 -14.4851 40.5391
3.0236 -14.781 40.5876
3.1736 -15.134 40.6801
3.4155 -15.2959 40.6254
3.5772 -15.6242 40.699
3.7415 -15.9467 40.7681
3.9274 -16.2244 40.8029
4.1227 -16.4823 40.8224
4.3121 -16.7525 40.8514
4.5244 -16.9753 40.8439
4.6795 -17.3153 40.9269
4.8414 -17.6413 40.9992
5.1068 -17.7547 40.9072
5.2714 -18.0747 40.975
5.4455 -18.375 41.0275
5.6591 -18.5944 41.0175
5.8825 -18.7937 40.9921
6.0728 -19.0604 41.0187
6.2151 -19.4247 41.1212
6.47 -19.5599 41.046
6.6331 -19.8813 41.1153
6.8299 -20.1341 41.1314
7.0143 -20.412 41.1669
7.2177 -20.6512 41.1726
7.4381 -20.856 41.1515
7.6356 -21.107 41.1663
7.8249 -21.3745 41.194
8.0541 -21.5614 41.159
8.2744 -21.7661 41.1379
8.504 -21.9524 41.1024
8.8939 -22.4635 41.1395
9.0941 -22.7084 41.1497
9.2181 -23.1052 41.2785
9.4648 -23.257 41.2162
9.578 -23.6746 41.3615
9.784 -23.9073 41.3624
9.9752 -24.1693 41.3862
10.1834 -24.3971 41.3834
10.3792 -24.6498 41.4
10.6121 -24.8288 41.359
10.818 -25.0612 41.3598
11.0145 -25.312 41.3751
11.2298 -25.5259 41.3613
11.4265 -25.776 41.3761
11.6312 -26.0104 41.3785
11.819 -26.278 41.4071
12.0685 -26.4243 41.3404
12.2651 -26.6744 41.3552
12.4537 -26.94 41.3823
12.6981 -27.0964 41.3235
12.8855 -27.3642 41.3523
13.1045 -27.5703 41.3326
13.3215 -27.78 41.3158
13.5155 -28.0348 41.3344
13.7518 -28.207 41.2881
13.9758 -28.4033 41.2607
14.2016 -28.596 41.2305
14.4078 -28.8268 41.2302
14.6408 -29.0056 41.189
14.8566 -29.2176 41.174
15.0717 -29.431 41.1601
15.2982 -29.6224 41.1288
15.5239 -29.8155 41.0989
15.7522 -30.0035 41.0649
15.9867 -30.1796 41.0215
16.1948 -30.4064 41.0182
16.4281 -30.5851 40.9767
16.6578 -30.7705 40.9406
16.8786 -30.9728 40.918
17.1243 -31.1279 40.8578
17.3386 -31.3428 40.8451
17.5555 -31.5526 40.8283
17.8029 -31.7047 40.7657
18.0222 -31.9101 40.7455
18.2453 -32.1083 40.7195
18.4841 -32.2767 40.6697
18.7005 -32.4875 40.6538
18.9249 -32.6835 40.626
19.1599 -32.8591 40.582
19.4088 -33.0088 40.5173
19.6273 -33.2159 40.4983
19.8694 -33.3785 40.4438
20.109 -33.546 40.3933
20.3602 -33.6917 40.3252
20.6033 -33.8529 40.2696
20.849 -34.0093 40.21
21.0904 -34.1737 40.1568
21.3084 -34.3819 40.1386
21.543 -34.5589 40.0955
21.7704 -34.7498 40.0634
22.0527 -34.8384 39.9495
22.2673 -35.0532 39.9365
22.5348 -35.1696 39.8447
22.7697 -35.3469 39.8016
23.0367 -35.4648 39.7109
23.2558 -35.6712 39.6911
23.4922 -35.8457 39.6458
23.7394 -36.0005 39.5846
23.9904 -36.1483 39.5177
24.2386 -36.3015 39.4551
24.5112 -36.41 39.3565
24.7014 -36.6697 39.3796
24.9897 -36.7499 39.258
25.2413 -36.8973 39.1907
25.4878 -37.0541 39.1307
25.7203 -37.2366 39.0915
25.9943 -37.3436 38.9914
26.2489 -37.4862 38.9199
26.5052 -37.6257 38.8459
26.7315 -37.8199 38.816
27.0287 -37.8856 38.6822
27.2803 -38.0342 38.6154
27.5166 -38.2105 38.571
27.7851 -38.3287 38.4795
28.0385 -38.4745 38.4103
28.2906 -38.6225 38.3428
28.5606 -38.7387 38.2495
28.7821 -38.9422 38.2269
29.0824 -39.0043 38.0896
29.3481 -39.1286 38.0027
29.6222 -39.2383 37.9038
29.876 -39.3843 37.8344
30.1567 -39.4827 37.7262
30.4339 -39.5873 37.6229
30.6403 -39.8183 37.6225
30.9507 -39.8643 37.4715
31.223 -39.9783 37.3757
31.4545 -40.165 37.3392
31.7286 -40.2762 37.2411
31.9964 -40.3988 37.1521
32.2808 -40.4922 37.0393
32.5801 -40.5596 36.9051
32.8478 -40.6829 36.8165
33.1514 -40.7433 36.6765
33.4301 -40.8479 36.5723
33.6582 -41.0417 36.5413
33.9179 -41.1799 36.4647
34.1803 -41.3137 36.3844
34.4214 -41.4847 36.3345
34.7681 -41.4713 36.1333
35.0099 -41.6417 36.0828
35.3652 -41.614 35.8697
35.5313 -41.9167 35.9278
36.4418 -42.1076 35.5124
36.7013 -42.248 35.437
36.9655 -42.3806 35.355
37.2692 -42.4451 35.2168
37.5181 -42.6045 35.1569
37.8786 -42.5716 34.9382
38.0599 -42.8479 34.9745
38.4456 -42.7724 34.7205
38.6763 -42.9638 34.6866
38.8881 -43.1878 34.6797
39.2245 -43.1982 34.4962
39.4657 -43.372 34.4477
39.7999 -43.3867 34.2675
40.0797 -43.495 34.1646
40.3894 -43.5524 34.0196
40.6516 -43.6911 33.9417
40.923 -43.8144 33.8511
41.2278 -43.881 33.7134
41.5312 -43.9503 33.5778
41.7792 -44.1139 33.5203
42.0995 -44.1553 33.3613
42.3722 -44.2773 33.2692
42.6689 -44.3593 33.1437
43.0216 -44.3469 32.9396
43.3993 -44.2927 32.7006
43.6164 -44.5099 32.6873
43.9492 -44.5322 32.5117
44.3503 -44.4404 32.2408
45.0706 -44.9775 32.1049
51.2901 -46.2561 29.2531
-16.5516 27.1481 30.192
-16.2385 27.1414 30.02
-16.3022 26.2165 30.5187
-16.1256 25.8783 30.5891
-15.9706 25.4876 30.6978
-16.0426 24.5472 31.2089
-15.8611 24.2227 31.2697
-15.7022 23.8437 31.3704
-15.4763 23.6271 31.3523
-15.3389 23.197 31.4907
-15.3191 22.4843 31.8364
-15.3341 21.6894 32.2427
-15.1975 21.2602 32.381
-15.1506 20.6164 32.677
-14.9953 20.2334 32.7817
-14.8761 19.7647 32.9496
-14.7132 19.4009 33.0405
-14.4485 19.2806 32.9525
-14.2159 19.0834 32.9209
-13.977 18.9013 32.8783
-13.786 18.6053 32.9194
-13.4826 18.5762 32.764
-13.83 17.0046 33.7453
-13.6923 16.5847 33.8784
-13.5764 16.1136 34.0493
-13.3459 15.914 34.0201
-13.1437 15.6474 34.0403
-12.8873 15.5087 33.9661
-12.8216 14.9216 34.2232
-12.6172 14.6611 34.2391
-12.3434 14.5633 34.1346
-12.2582 14.0237 34.357
-12.0364 13.8046 34.3424
-11.6211 14.0369 33.9935
-12.0242 12.3603 35.0585
-11.7186 12.3376 34.8988
-11.7383 11.5582 35.2999
-11.6844 10.9512 35.5735
-11.5969 10.4233 35.7887
-11.4474 10.0395 35.8971
-11.3404 9.5581 36.0782
-11.2063 9.14 36.2123
-11.014 8.8567 36.2464
-10.8265 8.5626 36.2885
-10.6201 8.3122 36.2982
-10.4438 7.9926 36.3594
-10.2616 7.6871 36.4103
-10.0433 7.4646 36.3993
-9.8659 7.1484 36.4582
-9.6523 6.9154 36.4552
-9.4726 6.6048 36.51
-9.2981 6.2829 36.5733
-9.2044 5.7776 36.7738
-9.1973 5.0761 37.1208
-9.0039 4.7987 37.1514
-8.8131 4.5156 37.1862
-8.6153 4.2486 37.209
-8.3893 4.0454 37.1842
-8.1951 3.7706 37.2129
-7.9948 3.5096 37.2313
-7.7761 3.2903 37.2185
-7.5491 3.0897 37.1917
-7.3448 2.8381 37.2032
-7.1495 2.5663 37.2299
-6.9964 2.2005 37.3272
-6.8 1.9317 37.3516
-6.8672 1.0746 37.8182
-6.8759 0.3496 38.186
-6.676 0.0905 38.2037
-6.3986 0.0039 38.0916
-6.2231 -0.309 38.1498
-6.1301 -0.8051 38.346
-5.9828 -1.1797 38.4509
-5.7797 -1.4307 38.4628
-5.5521 -1.6273 38.4337
-5.4866 -2.1816 38.6744
-5.2739 -2.4106 38.6698
-5.0718 -2.6629 38.6828
-4.8043 -2.7711 38.5871
-4.6983 -3.2344 38.7596
-4.5167 -3.5311 38.8063
-4.3583 -3.8783 38.8913
-4.1999 -4.2251 38.9761
-3.9544 -4.3815 38.9168
-3.7795 -4.6919 38.9742
-3.6673 -5.1385 39.1348
-3.4383 -5.3305 39.1026
-3.2848 -5.6865 39.1947
-3.0121 -5.7835 39.0904
-2.9517 -6.3406 39.3354
-2.7703 -6.6353 39.3812
-2.5555 -6.8572 39.3719
-2.4249 -7.2608 39.5007
-2.2038 -7.469 39.481
-2.0393 -7.799 39.5539
-1.8407 -8.0554 39.5709
-1.6384 -8.3037 39.5819
-1.458 -8.5987 39.6284
-1.2396 -8.8122 39.6128
-1.0747 -9.14 39.6845
-0.8777 -9.399 39.7036
-0.7843 -9.8786 39.8913
-0.5564 -10.0712 39.86
-0.4 -10.4158 39.9448
-0.2242 -10.7189 39.9979
0.0138 -10.8898 39.95
0.2249 -11.1177 39.9458
0.3936 -11.4354 40.0102
0.5554 -11.7672 40.0856
0.7632 -12.0015 40.0864
0.9441 -12.2925 40.1306
1.1342 -12.5641 40.1599
1.3148 -12.8552 40.2044
1.5045 -13.1272 40.2342
1.753 -13.2754 40.169
1.8386 -13.7652 40.3661
2.0516 -13.9876 40.3581
2.238 -14.2657 40.3927
2.3932 -14.6085 40.4772
2.6662 -14.7056 40.3728
2.8529 -14.9826 40.4068
3.0116 -15.3174 40.4854
3.1904 -15.6102 40.5317
3.3493 -15.9441 40.6096
3.5359 -16.2203 40.6433
3.7206 -16.5001 40.6797
3.9256 -16.7381 40.6839
4.1471 -16.9417 40.6617
4.3354 -17.2137 40.6922
4.4773 -17.5811 40.7965
4.683 -17.8168 40.7991
4.8918 -18.0462 40.7968
5.0778 -18.3222 40.8307
5.2553 -18.6154 40.8778
5.4759 -18.8202 40.8567
5.6435 -19.1333 40.9194
5.8419 -19.3833 40.9333
6.0297 -19.6546 40.9637
6.2389 -19.8824 40.9604
6.3974 -20.213 41.0369
6.6279 -20.3972 40.9998
6.8271 -20.6449 41.0121
7.0377 -20.8694 41.0064
7.2539 -21.0827 40.9919
7.4599 -21.3163 40.9932
7.6924 -21.4966 40.9532
7.9015 -21.7238 40.9496
8.1533 -21.8653 40.8791
8.3889 -22.0395 40.8343
8.6047 -22.2535 40.8203
8.7564 -22.5956 40.9064
8.8921 -22.9695 41.0174
8.988 -23.4223 41.1902
9.2279 -23.5872 41.1381
9.3974 -23.8926 41.1958
9.5799 -24.1719 41.2333
9.7645 -24.4466 41.2672
9.9745 -24.6711 41.2618
10.2122 -24.8403 41.2131
10.4296 -25.0499 41.1961
10.5931 -25.3659 41.2625
10.7994 -25.5972 41.2625
11.0248 -25.7908 41.233
11.237 -26.0104 41.2239
11.4222 -26.2829 41.2563
11.6452 -26.4812 41.2305
11.8864 -26.6436 41.1765
12.0742 -26.9108 41.2048
12.299 -27.1055 41.1762
12.5042 -27.3384 41.1776
12.7123 -27.5656 41.1745
12.927 -27.7799 41.1614
13.1613 -27.9559 41.118
13.3586 -28.204 41.1315
13.5995 -28.3674 41.0781
13.8048 -28.5997 41.0792
14.0261 -28.8011 41.0558
14.2359 -29.0249 41.0502
14.446 -29.2477 41.0437
14.6854 -29.4142 40.9928
14.9192 -29.5915 40.9503
15.1369 -29.7997 40.9324
15.3386 -30.0387 40.9388
15.5634 -30.2333 40.91
15.7971 -30.4109 40.8678
16.0207 -30.6078 40.8409
16.2676 -30.7603 40.7787
16.4801 -30.9784 40.7686
16.7303 -31.1247 40.7015
16.9468 -31.3353 40.6854
17.165 -31.5427 40.6667
17.4112 -31.6968 40.6057
17.6378 -31.8881 40.5743
17.8552 -32.097 40.5568
18.0598 -32.3303 40.5588
18.3185 -32.4608 40.4789
18.5549 -32.6338 40.4328
18.7709 -32.8453 40.4175
18.9939 -33.0438 40.3917
19.2297 -33.2179 40.3464
19.4711 -33.3818 40.293
19.724 -33.5241 40.2224
19.9367 -33.742 40.212
20.1976 -33.8695 40.1294
20.436 -34.0392 40.0805
20.6694 -34.2184 40.0392
20.9065 -34.3909 39.9925
21.1502 -34.551 39.9358
21.394 -34.711 39.8791
21.6417 -34.8639 39.8166
21.8739 -35.0457 39.7773
22.1077 -35.2246 39.7356
22.3581 -35.3728 39.6692
22.6135 -35.5119 39.5955
22.8395 -35.7053 39.5654
23.0963 -35.842 39.4897
23.3522 -35.9805 39.4154
23.5899 -36.1528 39.3682
23.8107 -36.356 39.346
24.0502 -36.525 39.2961
24.3052 -36.6657 39.2233
24.6069 -36.721 39.0817
24.8388 -36.9043 39.0433
25.0901 -37.0522 38.9763
25.3296 -37.2219 38.9267
25.5924 -37.3491 38.8429
25.8407 -37.5028 38.7804
26.0872 -37.6598 38.7206
26.3272 -37.8291 38.6706
26.6073 -37.9254 38.5616
26.8703 -38.053 38.4778
27.116 -38.2122 38.4195
27.3805 -38.3374 38.3337
27.6309 -38.4883 38.2687
27.8787 -38.6441 38.2075
28.1836 -38.6971 38.0629
28.4051 -38.9005 38.0403
28.6791 -39.0097 37.9412
28.9384 -39.1452 37.8634
29.2116 -39.2563 37.7657
29.4409 -39.4459 37.7318
29.7645 -39.4672 37.5608
29.9699 -39.6997 37.5618
30.2435 -39.8106 37.4637
30.5309 -39.8973 37.3457
30.815 -39.9902 37.2327
31.0548 -40.1619 37.184
31.3373 -40.2579 37.0735
31.5656 -40.4503 37.0415
31.8468 -40.5489 36.933
32.1355 -40.6347 36.8138
32.4072 -40.7509 36.7195
32.6765 -40.8713 36.6285
32.9716 -40.9466 36.5005
33.2096 -41.1226 36.4549
33.5295 -41.1549 36.2915
33.7902 -41.2913 36.2133
34.0446 -41.4389 36.1443
34.3311 -41.5306 36.0294
34.5994 -41.6543 35.9406
34.8496 -41.8099 35.878
35.1412 -41.8932 35.7559
35.4236 -41.9929 35.6473
35.7537 -42.0101 35.4706
35.9683 -42.2281 35.4591
36.2836 -42.2716 35.3038
36.5911 -42.3288 35.1598
36.819 -42.5243 35.1296
37.6566 -42.8452 34.8198
38.0306 -42.7894 34.5819
38.2376 -43.0214 34.5817
38.5196 -43.1246 34.475
38.7562 -43.306 34.4328
39.0281 -43.4269 34.3406
39.9773 -43.5626 33.8755
40.2911 -43.6131 33.7245
40.5335 -43.7855 33.6746
40.8387 -43.8512 33.5361
41.1516 -43.9041 33.3869
41.4332 -44.0105 33.282
41.7373 -44.0791 33.1455
