3.667934036254882812e+01 -3.739871215820312500e+01 4.061388015747070312e+01
3.695189666748046875e+01 -3.751671218872070312e+01 4.052160263061523438e+01
3.723889541625976562e+01 -3.760931015014648438e+01 4.040880203247070312e+01
3.754469680786132812e+01 -3.766931152343750000e+01 4.026950073242187500e+01
3.781647109985351562e+01 -3.778794479370117188e+01 4.017718505859375000e+01
3.809801864624023438e+01 -3.789148712158203125e+01 4.007294845581054688e+01
3.831678009033203125e+01 -3.810388946533203125e+01 4.005636215209960938e+01
3.852791595458984375e+01 -3.832783126831054688e+01 4.004816436767578125e+01
3.885384368896484375e+01 -3.835512161254882812e+01 3.988221740722656250e+01
3.913455963134765625e+01 -3.845866775512695312e+01 3.977818679809570312e+01
3.935270309448242188e+01 -3.867461776733398438e+01 3.976342391967773438e+01
3.974255752563476562e+01 -3.859103012084960938e+01 3.950772476196289062e+01
4.003036499023437500e+01 -3.868453216552734375e+01 3.939471054077148438e+01
4.037696456909179688e+01 -3.867713165283203125e+01 3.919991302490234375e+01
4.058279037475585938e+01 -3.891426467895507812e+01 3.920252609252929688e+01
4.093675231933593750e+01 -3.889316558837890625e+01 3.899483108520507812e+01
4.108022689819335938e+01 -3.923529815673828125e+01 3.908258438110351562e+01
4.142289733886718750e+01 -3.923441314697265625e+01 3.889427185058593750e+01
4.165956115722656250e+01 -3.941856384277343750e+01 3.885526275634765625e+01
4.193611526489257812e+01 -3.953256607055664062e+01 3.875816726684570312e+01
4.214631271362304688e+01 -3.976086807250976562e+01 3.875386810302734375e+01
4.302578353881835938e+01 -4.012756347656250000e+01 3.836514282226562500e+01
4.327898025512695312e+01 -4.017556381225585938e+01 3.833340072631835938e+01
4.356802368164062500e+01 -4.027166366577148438e+01 3.822319412231445312e+01
4.390852355957031250e+01 -4.027916336059570312e+01 3.803909301757812500e+01
4.423242187500000000e+01 -4.031568527221679688e+01 3.787809371948242188e+01
4.443562316894531250e+01 -4.055681228637695312e+01 3.788389205932617188e+01
4.479386901855468750e+01 -4.053571319580078125e+01 3.767639160156250000e+01
4.508570098876953125e+01 -4.062791061401367188e+01 3.755970001220703125e+01
4.534280014038085938e+01 -4.077915191650390625e+01 3.749140167236328125e+01
4.566709899902343750e+01 -4.081689834594726562e+01 3.733079910278320312e+01
4.589680099487304688e+01 -4.101477432250976562e+01 3.730020141601562500e+01
4.620439910888671875e+01 -4.108027648925781250e+01 3.716260147094726562e+01
4.638249969482421875e+01 -4.136377716064453125e+01 3.720309829711914062e+01
4.681489944458007812e+01 -4.121825790405273438e+01 3.689459991455078125e+01
-1.012166118621826172e+01 3.325982284545898438e+01 3.139328384399414062e+01
-9.728760719299316406e+00 3.343382263183593750e+01 3.109148216247558594e+01
-9.602061271667480469e+00 3.296942138671875000e+01 3.124948310852050781e+01
-9.763461112976074219e+00 3.181672668457031250e+01 3.190378379821777344e+01
-9.588160514831542969e+00 3.147072601318359375e+01 3.197688293457031250e+01
-9.478660583496093750e+00 3.096802520751953125e+01 3.216318511962890625e+01
-9.189661979675292969e+00 3.089392662048339844e+01 3.204029083251953125e+01
-9.098787307739257812e+00 3.035508346557617188e+01 3.225262069702148438e+01
-8.774930000305175781e+00 2.884250068664550781e+01 3.281292724609375000e+01
-8.455757141113281250e+00 2.808351898193359375e+01 3.300931167602539062e+01
-8.217456817626953125e+00 2.789021873474121094e+01 3.297280883789062500e+01
-8.202081680297851562e+00 2.717046928405761719e+01 3.331840515136718750e+01
-8.059915542602539062e+00 2.675044631958007812e+01 3.344796371459960938e+01
-7.802313804626464844e+00 2.660250663757324219e+01 3.337887954711914062e+01
-7.452936172485351562e+00 2.668587112426757812e+01 3.352422714233398438e+01
-7.525236606597900391e+00 2.425243759155273438e+01 3.437924575805664062e+01
-7.437980651855468750e+00 2.371219825744628906e+01 3.459846496582031250e+01
-7.215880393981933594e+00 2.348419952392578125e+01 3.458796691894531250e+01
-7.351538181304931641e+00 2.244816017150878906e+01 3.517044448852539062e+01
-7.124533176422119141e+00 2.222472763061523438e+01 3.514516067504882812e+01
-7.245403766632080078e+00 2.121205329895019531e+01 3.571288681030273438e+01
-7.030443191528320312e+00 2.050922012329101562e+01 3.598675155639648438e+01
-6.902026176452636719e+00 2.051574516296386719e+01 3.583241271972656250e+01
-6.747376918792724609e+00 1.995253944396972656e+01 3.603947830200195312e+01
-6.486715793609619141e+00 2.001243782043457031e+01 3.589719772338867188e+01
-6.352315902709960938e+00 1.958405685424804688e+01 3.603259658813476562e+01
-6.174226760864257812e+00 1.924532127380371094e+01 3.609792709350585938e+01
-6.241153717041015625e+00 1.835170364379882812e+01 3.657546615600585938e+01
-6.378065109252929688e+00 1.729569244384765625e+01 3.714211654663085938e+01
-6.232660770416259766e+00 1.688990020751953125e+01 3.728514099121093750e+01
-5.991449356079101562e+00 1.671162986755371094e+01 3.723945999145507812e+01
-5.788986682891845703e+00 1.644472885131835938e+01 3.725979614257812500e+01
-5.556504249572753906e+00 1.624652862548828125e+01 3.722760772705078125e+01
-5.343204021453857422e+00 1.600452995300292969e+01 3.722880935668945312e+01
-5.140203952789306641e+00 1.573922920227050781e+01 3.724710845947265625e+01
-6.680061340332031250e+00 1.007379913330078125e+01 4.086989593505859375e+01
-6.465661048889160156e+00 9.841299057006835938e+00 4.086579513549804688e+01
-6.269479274749755859e+00 9.566100120544433594e+00 4.089295959472656250e+01
-6.153779029846191406e+00 9.110699653625488281e+00 4.105255889892578125e+01
-5.939579010009765625e+00 8.878600120544433594e+00 4.104835891723632812e+01
-5.780707836151123047e+00 8.522500038146972656e+00 4.113531494140625000e+01
-5.588807582855224609e+00 8.240400314331054688e+00 4.116791534423828125e+01
-5.421907901763916016e+00 7.902200222015380859e+00 4.124181747436523438e+01
-5.205707550048828125e+00 7.675000190734863281e+00 4.123411560058593750e+01
-5.060007572174072266e+00 7.290100097656250000e+00 4.134261703491210938e+01
-4.869227886199951172e+00 7.004600048065185547e+00 4.137805938720703125e+01
-4.661027908325195312e+00 6.760200023651123047e+00 4.138315963745117188e+01
-4.440728187561035156e+00 6.542900085449218750e+00 4.136845779418945312e+01
-4.251028060913085938e+00 6.257299900054931641e+00 4.140395736694335938e+01
-4.025228023529052734e+00 6.052299976348876953e+00 4.138005828857421875e+01
-3.794100046157836914e+00 5.858500003814697266e+00 4.134799957275390625e+01
-3.578000068664550781e+00 5.631999969482421875e+00 4.134000015258789062e+01
-3.327300071716308594e+00 5.482299804687500000e+00 4.127539825439453125e+01
-3.121999979019165039e+00 5.231800079345703125e+00 4.128509902954101562e+01
-2.864748954772949219e+00 5.096600055694580078e+00 4.120967864990234375e+01
-2.621248960494995117e+00 4.930799961090087891e+00 4.115677642822265625e+01
-2.384830951690673828e+00 4.750000000000000000e+00 4.111474990844726562e+01
-2.149331092834472656e+00 4.566299915313720703e+00 4.107504653930664062e+01
-1.874631047248840332e+00 4.468900203704833984e+00 4.097144699096679688e+01
-1.632741451263427734e+00 4.298871517181396484e+00 4.092150497436523438e+01
-1.365241408348083496e+00 4.185171604156494141e+00 4.082980728149414062e+01
-1.108741402626037598e+00 4.047032356262207031e+00 4.075618362426757812e+01
-9.009413719177246094e-01 3.802131891250610352e+00 4.076178359985351562e+01
-5.915259122848510742e-01 3.780123710632324219e+00 4.060071182250976562e+01
-3.429304957389831543e-01 3.625974655151367188e+00 4.054027938842773438e+01
-7.889181375503540039e-02 3.505907058715820312e+00 4.045248031616210938e+01
1.865079849958419800e-01 3.384402990341186523e+00 4.035971832275390625e+01
5.327417254447937012e-01 3.442216873168945312e+00 4.013319015502929688e+01
8.859952688217163086e-01 3.606769323348999023e+00 3.991943740844726562e+01
1.103869438171386719e+00 3.298066139221191406e+00 3.988955307006835938e+01
8.889999985694885254e-02 3.887000083923339844e-01 4.189110183715820312e+01
2.445999979972839355e-01 3.409999981522560120e-02 4.197909927368164062e+01
4.517999887466430664e-01 -2.090999931097030640e-01 4.198419952392578125e+01
6.622999906539916992e-01 -4.451000094413757324e-01 4.198400115966796875e+01
8.508999943733215332e-01 -7.279000282287597656e-01 4.201869964599609375e+01
1.004199981689453125e+00 -1.086799979209899902e+00 4.211019897460937500e+01
1.204800009727478027e+00 -1.343400001525878906e+00 4.212549972534179688e+01
1.452100038528442383e+00 -1.499600052833557129e+00 4.206589889526367188e+01
1.670699954032897949e+00 -1.717599987983703613e+00 4.205229949951171875e+01
1.882200002670288086e+00 -1.950500011444091797e+00 4.204990005493164062e+01
2.104500055313110352e+00 -2.160500049591064453e+00 4.203039932250976562e+01
2.310199975967407227e+00 -2.405900001525878906e+00 4.203739929199218750e+01
2.493900060653686523e+00 -2.697999954223632812e+00 4.207939910888671875e+01
2.474999904632568359e+00 -3.421499967575073242e+00 4.244459915161132812e+01
2.687999963760375977e+00 -3.650399923324584961e+00 4.243949890136718750e+01
2.918200016021728516e+00 -3.842600107192993164e+00 4.240689849853515625e+01
3.001100063323974609e+00 -4.347199916839599609e+00 4.260869979858398438e+01
3.171200037002563477e+00 -4.666399955749511719e+00 4.267139816284179688e+01
3.381299972534179688e+00 -4.900599956512451172e+00 4.267050170898437500e+01
3.661299943923950195e+00 -4.987100124359130859e+00 4.255860137939453125e+01
3.841799974441528320e+00 -5.283899784088134766e+00 4.260469818115234375e+01
3.948999881744384766e+00 -5.735000133514404297e+00 4.276679992675781250e+01
4.195400238037109375e+00 -5.892099857330322266e+00 4.270800018310546875e+01
4.310599803924560547e+00 -6.325600147247314453e+00 4.285710144042968750e+01
4.442500114440917969e+00 -6.723199844360351562e+00 4.297930145263671875e+01
4.720399856567382812e+00 -6.814099788665771484e+00 4.287080001831054688e+01
4.924300193786621094e+00 -7.060299873352050781e+00 4.287910079956054688e+01
5.067800045013427734e+00 -7.432899951934814453e+00 4.298270034790039062e+01
5.318399906158447266e+00 -7.580999851226806641e+00 4.291730117797851562e+01
5.346399784088134766e+00 -8.193900108337402344e+00 4.320230102539062500e+01
5.635200023651123047e+00 -8.262200355529785156e+00 4.307659912109375000e+01
5.738900184631347656e+00 -8.716199874877929688e+00 4.324209976196289062e+01
6.024099826812744141e+00 -8.792200088500976562e+00 4.312220001220703125e+01
6.159900188446044922e+00 -9.178600311279296875e+00 4.323680114746093750e+01
6.352499961853027344e+00 -9.446800231933593750e+00 4.326219940185546875e+01
6.461599826812744141e+00 -9.887900352478027344e+00 4.341830062866210938e+01
6.625500202178955078e+00 -1.021490001678466797e+01 4.348830032348632812e+01
6.908899784088134766e+00 -1.029479980468750000e+01 4.337129974365234375e+01
7.018499851226806641e+00 -1.073359966278076172e+01 4.352600097656250000e+01
7.237199783325195312e+00 -1.094680023193359375e+01 4.350999832153320312e+01
7.414299964904785156e+00 -1.124569988250732422e+01 4.355889892578125000e+01
7.615399837493896484e+00 -1.149510002136230469e+01 4.357040023803710938e+01
7.849400043487548828e+00 -1.167689990997314453e+01 4.353060150146484375e+01
8.141099929809570312e+00 -1.174040031433105469e+01 4.340090179443359375e+01
8.211400032043457031e+00 -1.225749969482421875e+01 4.361569976806640625e+01
8.408399581909179688e+00 -1.251459980010986328e+01 4.363320159912109375e+01
8.576600074768066406e+00 -1.283049964904785156e+01 4.369540023803710938e+01
8.768199920654296875e+00 -1.309850025177001953e+01 4.372119903564453125e+01
8.978199958801269531e+00 -1.332859992980957031e+01 4.371820068359375000e+01
9.168100357055664062e+00 -1.359959983825683594e+01 4.374639892578125000e+01
9.322099685668945312e+00 -1.394349956512451172e+01 4.383010101318359375e+01
9.492099761962890625e+00 -1.425450038909912109e+01 4.388890075683593750e+01
9.666899681091308594e+00 -1.455539989471435547e+01 4.393999862670898438e+01
9.994000434875488281e+00 -1.454790019989013672e+01 4.375600051879882812e+01
1.008749961853027344e+01 -1.501319980621337891e+01 4.393270111083984375e+01
1.029759979248046875e+01 -1.524219989776611328e+01 4.392910003662109375e+01
1.052110004425048828e+01 -1.544429969787597656e+01 4.390499877929687500e+01
1.071430015563964844e+01 -1.570740032196044922e+01 4.392750167846679688e+01
1.086760044097900391e+01 -1.605050086975097656e+01 4.401119995117187500e+01
1.104380035400390625e+01 -1.634720039367675781e+01 4.405950164794921875e+01
1.131820011138916016e+01 -1.644680023193359375e+01 4.395709991455078125e+01
1.148649978637695312e+01 -1.675919914245605469e+01 4.401739883422851562e+01
1.164630031585693359e+01 -1.708849906921386719e+01 4.409080123901367188e+01
1.195409965515136719e+01 -1.712150001525878906e+01 4.393730163574218750e+01
1.208670043945312500e+01 -1.750460052490234375e+01 4.405199813842773438e+01
1.231709957122802734e+01 -1.769239997863769531e+01 4.401710128784179688e+01
1.247350025177001953e+01 -1.802729988098144531e+01 4.409500122070312500e+01
1.271140003204345703e+01 -1.820009994506835938e+01 4.404859924316406250e+01
1.291660022735595703e+01 -1.843779945373535156e+01 4.405199813842773438e+01
1.311779975891113281e+01 -1.868320083618164062e+01 4.406140136718750000e+01
1.329141902923583984e+01 -1.898074340820312500e+01 4.410951232910156250e+01
1.350170230865478516e+01 -1.920751953125000000e+01 4.410439682006835938e+01
1.371042060852050781e+01 -1.943723297119140625e+01 4.410150527954101562e+01
1.390458679199218750e+01 -1.969474601745605469e+01 4.411962127685546875e+01
1.415762901306152344e+01 -1.983622550964355469e+01 4.404850006103515625e+01
1.439762878417968750e+01 -2.000482559204101562e+01 4.399890136718750000e+01
1.469992923736572266e+01 -2.005102539062500000e+01 4.385490036010742188e+01
1.482002925872802734e+01 -2.045542526245117188e+01 4.398690032958984375e+01
1.501361083984375000e+01 -2.071529006958007812e+01 4.400761413574218750e+01
1.516221141815185547e+01 -2.106299018859863281e+01 4.409611511230468750e+01
1.533541107177734375e+01 -2.136228942871093750e+01 4.414741516113281250e+01
1.548446846008300781e+01 -2.170961189270019531e+01 4.423643493652343750e+01
1.569346618652343750e+01 -2.194149208068847656e+01 4.423713684082031250e+01
1.588519954681396484e+01 -2.220569992065429688e+01 4.426240158081054688e+01
1.609840011596679688e+01 -2.242620086669921875e+01 4.425299835205078125e+01
1.631110000610351562e+01 -2.264760017395019531e+01 4.424430084228515625e+01
1.644899940490722656e+01 -2.301409912109375000e+01 4.434780120849609375e+01
1.672030067443847656e+01 -2.312159919738769531e+01 4.425090026855468750e+01
1.692700004577636719e+01 -2.335440063476562500e+01 4.425109863281250000e+01
1.714509963989257812e+01 -2.356500053405761719e+01 4.423410034179687500e+01
1.736230087280273438e+01 -2.377739906311035156e+01 4.421839904785156250e+01
1.755130004882812500e+01 -2.404420089721679688e+01 4.424499893188476562e+01
1.776659965515136719e+01 -2.426009941101074219e+01 4.423210144042968750e+01
1.791270065307617188e+01 -2.460910034179687500e+01 4.432260131835937500e+01
1.820400047302246094e+01 -2.467869949340820312e+01 4.419599914550781250e+01
1.839590072631835938e+01 -2.493959999084472656e+01 4.421820068359375000e+01
1.860449981689453125e+01 -2.516799926757812500e+01 4.421500015258789062e+01
1.884670066833496094e+01 -2.533230018615722656e+01 4.416210174560546875e+01
1.902309989929199219e+01 -2.562240028381347656e+01 4.420700073242187500e+01
1.925720024108886719e+01 -2.580209922790527344e+01 4.416600036621093750e+01
1.944549942016601562e+01 -2.606909942626953125e+01 4.419300079345703125e+01
1.970229911804199219e+01 -2.620549964904785156e+01 4.411830139160156250e+01
1.990229988098144531e+01 -2.645030021667480469e+01 4.412789916992187500e+01
2.010950088500976562e+01 -2.668120002746582031e+01 4.412689971923828125e+01
2.035219955444335938e+01 -2.684460067749023438e+01 4.407310104370117188e+01
2.058300018310546875e+01 -2.703070068359375000e+01 4.403710174560546875e+01
2.076609992980957031e+01 -2.730719947814941406e+01 4.407160186767578125e+01
2.103459930419921875e+01 -2.742189979553222656e+01 4.397969818115234375e+01
2.126020050048828125e+01 -2.761779975891113281e+01 4.395130157470703125e+01
2.151619911193847656e+01 -2.775639915466308594e+01 4.387810134887695312e+01
2.173329925537109375e+01 -2.796859931945800781e+01 4.386240005493164062e+01
2.194919967651367188e+01 -2.818289947509765625e+01 4.384830093383789062e+01
2.214399909973144531e+01 -2.843680000305175781e+01 4.386529922485351562e+01
2.237470054626464844e+01 -2.862339973449707031e+01 4.382960128784179688e+01
2.263430023193359375e+01 -2.875539970397949219e+01 4.375109863281250000e+01
2.285849952697753906e+01 -2.895439910888671875e+01 4.372499847412109375e+01
2.309589958190917969e+01 -2.912829971313476562e+01 4.367919921875000000e+01
2.333779907226562500e+01 -2.929409980773925781e+01 4.362710189819335938e+01
2.355620002746582031e+01 -2.950370025634765625e+01 4.360929870605468750e+01
2.380360031127929688e+01 -2.965940093994140625e+01 4.354919815063476562e+01
2.401530075073242188e+01 -2.988150024414062500e+01 4.354130172729492188e+01
2.426479911804199219e+01 -3.003330039978027344e+01 4.347809982299804688e+01
2.449850082397460938e+01 -3.021479988098144531e+01 4.343809890747070312e+01
2.470459938049316406e+01 -3.044720077514648438e+01 4.343840026855468750e+01
2.496629905700683594e+01 -3.057670021057128906e+01 4.335749816894531250e+01
2.515929985046386719e+01 -3.083340072631835938e+01 4.337680053710937500e+01
2.541430091857910156e+01 -3.097550010681152344e+01 4.330580139160156250e+01
2.573870086669921875e+01 -3.098970031738281250e+01 4.313380050659179688e+01
2.589259910583496094e+01 -3.131850051879882812e+01 4.321009826660156250e+01
2.611179924011230469e+01 -3.152680015563964844e+01 4.319129943847656250e+01
2.638310050964355469e+01 -3.163929939270019531e+01 4.309680175781250000e+01
2.659989929199218750e+01 -3.185219955444335938e+01 4.308150100708007812e+01
2.684919929504394531e+01 -3.200529861450195312e+01 4.301900100708007812e+01
2.708250045776367188e+01 -3.218790054321289062e+01 4.297980117797851562e+01
2.730890083312988281e+01 -3.238320159912109375e+01 4.295059967041015625e+01
2.756469917297363281e+01 -3.252489852905273438e+01 4.287900161743164062e+01
2.777610015869140625e+01 -3.274769973754882812e+01 4.287149810791015625e+01
2.809230041503906250e+01 -3.277939987182617188e+01 4.271260070800781250e+01
2.832250022888183594e+01 -3.296789932250976562e+01 4.267789840698242188e+01
2.858029937744140625e+01 -3.310649871826171875e+01 4.260369873046875000e+01
2.881800079345703125e+01 -3.328179931640625000e+01 4.255849838256835938e+01
2.901549911499023438e+01 -3.352989959716796875e+01 4.257109832763671875e+01
2.925900077819824219e+01 -3.369449996948242188e+01 4.251739883422851562e+01
2.954400062561035156e+01 -3.378430175781250000e+01 4.240420150756835938e+01
2.976479911804199219e+01 -3.399020004272460938e+01 4.238330078125000000e+01
3.002400016784667969e+01 -3.412710189819335938e+01 4.230739974975585938e+01
3.033569908142089844e+01 -3.416920089721679688e+01 4.215599822998046875e+01
3.053739929199218750e+01 -3.440990066528320312e+01 4.216279983520507812e+01
3.078580093383789062e+01 -3.456639862060546875e+01 4.210240173339843750e+01
3.103149986267089844e+01 -3.472800064086914062e+01 4.204600143432617188e+01
3.134410095214843750e+01 -3.476959991455078125e+01 4.189390182495117188e+01
3.155870056152343750e+01 -3.498730087280273438e+01 4.188230133056640625e+01
3.185230064392089844e+01 -3.506340026855468750e+01 4.175749969482421875e+01
3.209769821166992188e+01 -3.522610092163085938e+01 4.170180130004882812e+01
3.233319854736328125e+01 -3.540650177001953125e+01 4.166030120849609375e+01
3.255059814453125000e+01 -3.561899948120117188e+01 4.164435958862304688e+01
3.287648773193359375e+01 -3.563719940185546875e+01 4.147349548339843750e+01
3.312918853759765625e+01 -3.578739929199218750e+01 4.140769577026367188e+01
3.337841415405273438e+01 -3.594210052490234375e+01 4.134513854980468750e+01
3.358601379394531250e+01 -3.617278289794921875e+01 4.134353637695312500e+01
3.386871719360351562e+01 -3.627008056640625000e+01 4.123513793945312500e+01
3.421030426025390625e+01 -3.626119995117187500e+01 4.104090499877929688e+01
3.456580734252929688e+01 -3.623040008544921875e+01 4.082970428466796875e+01
3.468415832519531250e+01 -3.662048339843750000e+01 4.095651626586914062e+01
3.495501708984375000e+01 -3.673958206176757812e+01 4.086551666259765625e+01
3.523806762695312500e+01 -3.683868408203125000e+01 4.075776290893554688e+01
3.549906539916992188e+01 -3.697670364379882812e+01 4.068177413940429688e+01
3.575756454467773438e+01 -3.711792373657226562e+01 4.060847473144531250e+01
3.607155609130859375e+01 -3.716282272338867188e+01 4.045767974853515625e+01
3.631129074096679688e+01 -3.733820724487304688e+01 4.041097640991210938e+01
3.656475830078125000e+01 -3.749836349487304688e+01 4.035417938232421875e+01
3.682263946533203125e+01 -3.763021087646484375e+01 4.027098083496093750e+01
3.704799652099609375e+01 -3.783111190795898438e+01 4.024539947509765625e+01
3.731719589233398438e+01 -3.795471191406250000e+01 4.015740203857421875e+01
3.756779861450195312e+01 -3.811105346679687500e+01 4.009569931030273438e+01
3.786846923828125000e+01 -3.817914581298828125e+01 3.996258544921875000e+01
3.814403152465820312e+01 -3.829254531860351562e+01 3.986619949340820312e+01
3.841762924194335938e+01 -3.840980148315429688e+01 3.977239990234375000e+01
3.872926712036132812e+01 -3.845944213867187500e+01 3.962340164184570312e+01
3.892997741699218750e+01 -3.870309066772460938e+01 3.963293838500976562e+01
3.928974914550781250e+01 -3.867287445068359375e+01 3.941915893554687500e+01
3.948896026611328125e+01 -3.891963195800781250e+01 3.943062210083007812e+01
3.986545944213867188e+01 -3.885993194580078125e+01 3.919362258911132812e+01
4.021059036254882812e+01 -3.885671234130859375e+01 3.900142669677734375e+01
4.047929000854492188e+01 -3.898366546630859375e+01 3.891542434692382812e+01
4.060857009887695312e+01 -3.935013580322265625e+01 3.902307510375976562e+01
4.093622970581054688e+01 -3.937419509887695312e+01 3.885178375244140625e+01
4.121606445312500000e+01 -3.948246383666992188e+01 3.875286483764648438e+01
4.143056106567382812e+01 -3.970296478271484375e+01 3.874246215820312500e+01
4.185581588745117188e+01 -3.956256866455078125e+01 3.843846893310546875e+01
4.261708068847656250e+01 -4.002346038818359375e+01 3.824539947509765625e+01
4.295548248291015625e+01 -4.003326034545898438e+01 3.806340026855468750e+01
4.322492218017578125e+01 -4.016276550292968750e+01 3.798019409179687500e+01
4.348982238769531250e+01 -4.029846572875976562e+01 3.790049362182617188e+01
4.386052322387695312e+01 -4.025534820556640625e+01 3.767449188232421875e+01
4.398627090454101562e+01 -4.062758255004882812e+01 3.778789138793945312e+01
4.435536956787109375e+01 -4.058761215209960938e+01 3.756449127197265625e+01
4.461600112915039062e+01 -4.073221206665039062e+01 3.749050140380859375e+01
4.491920089721679688e+01 -4.080545043945312500e+01 3.735850143432617188e+01
4.520050048828125000e+01 -4.091563034057617188e+01 3.725659942626953125e+01
4.549890136718750000e+01 -4.099687576293945312e+01 3.713140106201171875e+01
4.573139953613281250e+01 -4.118877410888671875e+01 3.709700012207031250e+01
4.596369934082031250e+01 -4.135851669311523438e+01 3.706290054321289062e+01
4.702610015869140625e+01 -4.134305572509765625e+01 3.645909881591796875e+01
4.730920028686523438e+01 -4.145095825195312500e+01 3.635559844970703125e+01
-1.051356124877929688e+01 3.405952072143554688e+01 3.082578277587890625e+01
-1.034806060791015625e+01 3.368732070922851562e+01 3.091728401184082031e+01
-1.020516109466552734e+01 3.326092147827148438e+01 3.104778289794921875e+01
-1.017186069488525391e+01 3.257252120971679688e+01 3.136748313903808594e+01
-1.001656055450439453e+01 3.217732238769531250e+01 3.147598266601562500e+01
-9.990673065185546875e+00 3.147329711914062500e+01 3.180722427368164062e+01
-9.791072845458984375e+00 3.118559837341308594e+01 3.183842468261718750e+01
-9.598173141479492188e+00 3.088209724426269531e+01 3.188112449645996094e+01
-9.465330123901367188e+00 3.043806838989257812e+01 3.202539825439453125e+01
-9.226999282836914062e+00 3.024825668334960938e+01 3.198586654663085938e+01
-8.975148200988769531e+00 3.011724472045898438e+01 3.199083900451660156e+01
-9.103072166442871094e+00 2.902040672302246094e+01 3.252086257934570312e+01
-8.971168518066406250e+00 2.857429313659667969e+01 3.266335296630859375e+01
-8.859205245971679688e+00 2.808196830749511719e+01 3.284214782714843750e+01
-8.835031509399414062e+00 2.738430023193359375e+01 3.317114257812500000e+01
-8.415605545043945312e+00 2.761796760559082031e+01 3.282544708251953125e+01
-8.615000724792480469e+00 2.639521980285644531e+01 3.353668212890625000e+01
-8.284653663635253906e+00 2.641627502441406250e+01 3.334518051147460938e+01
-8.389522552490234375e+00 2.541750717163085938e+01 3.389517974853515625e+01
-8.204155921936035156e+00 2.510257530212402344e+01 3.394660568237304688e+01
-7.958293914794921875e+00 2.492767524719238281e+01 3.389877700805664062e+01
-7.838536739349365234e+00 2.445943641662597656e+01 3.406274414062500000e+01
-7.708478450775146484e+00 2.401828193664550781e+01 3.420619201660156250e+01
-7.463178634643554688e+00 2.384428215026855469e+01 3.415639114379882812e+01
-7.637084960937500000e+00 2.271653556823730469e+01 3.480530929565429688e+01
-7.477638244628906250e+00 2.234456062316894531e+01 3.490414428710937500e+01
-7.471511363983154297e+00 2.161688804626464844e+01 3.525832748413085938e+01
-7.369692325592041016e+00 2.111195373535156250e+01 3.545090484619140625e+01
-7.224270343780517578e+00 2.070786476135253906e+01 3.556998825073242188e+01
-7.083354949951171875e+00 2.029736328125000000e+01 3.569651031494140625e+01
-6.751679420471191406e+00 2.031937217712402344e+01 3.564688491821289062e+01
-6.795996189117431641e+00 1.948696899414062500e+01 3.593977355957031250e+01
-6.555329799652099609e+00 1.929946899414062500e+01 3.589833068847656250e+01
-6.598975181579589844e+00 1.845822334289550781e+01 3.633273315429687500e+01
-6.837481975555419922e+00 1.720965194702148438e+01 3.690573883056640625e+01
-6.593037128448486328e+00 1.698472213745117188e+01 3.705273818969726562e+01
-6.366297245025634766e+00 1.676795578002929688e+01 3.703462982177734375e+01
-6.141449451446533203e+00 1.655241966247558594e+01 3.701596069335937500e+01
-5.925149440765380859e+00 1.631702995300292969e+01 3.701216125488281250e+01
-5.692404270172119141e+00 1.611923027038574219e+01 3.698060989379882812e+01
-5.485703945159912109e+00 1.586222934722900391e+01 3.699280929565429688e+01
-7.009761333465576172e+00 1.022419929504394531e+01 4.059699630737304688e+01
-6.826761245727539062e+00 9.920498847961425781e+00 4.064519500732421875e+01
-6.667561054229736328e+00 9.562899589538574219e+00 4.073299407958984375e+01
-6.507379055023193359e+00 9.206399917602539062e+00 4.081995773315429688e+01
-6.339579105377197266e+00 8.869099617004394531e+00 4.089295959472656250e+01
-6.171307563781738281e+00 8.534099578857421875e+00 4.096441650390625000e+01
-6.001807689666748047e+00 8.201399803161621094e+00 4.103431701660156250e+01
-5.828007698059082031e+00 7.879000186920166016e+00 4.109681701660156250e+01
-5.670807838439941406e+00 7.519199848175048828e+00 4.118671417236328125e+01
-5.474707603454589844e+00 7.247300148010253906e+00 4.121211624145507812e+01
-5.288007736206054688e+00 6.954599857330322266e+00 4.125291442871093750e+01
-5.090628147125244141e+00 6.684100151062011719e+00 4.127725982666015625e+01
-4.862527847290039062e+00 6.484600067138671875e+00 4.124945831298828125e+01
-4.631428241729736328e+00 6.291600227355957031e+00 4.121685791015625000e+01
-4.429828166961669922e+00 6.032800197601318359e+00 4.123265838623046875e+01
-4.220228195190429688e+00 5.791800022125244141e+00 4.123545837402343750e+01
-3.982000112533569336e+00 5.613999843597412109e+00 4.119160079956054688e+01
-3.759799957275390625e+00 5.401400089263916016e+00 4.117340087890625000e+01
-3.518100023269653320e+00 5.231699943542480469e+00 4.112350082397460938e+01
-3.292348861694335938e+00 5.026899814605712891e+00 4.109947586059570312e+01
-3.062812089920043945e+00 4.830699920654296875e+00 4.106914901733398438e+01
-2.803112030029296875e+00 4.700699806213378906e+00 4.098984909057617188e+01
-2.553994178771972656e+00 4.548099994659423828e+00 4.092692184448242188e+01
-2.323494195938110352e+00 4.353400230407714844e+00 4.089542007446289062e+01
-2.074104547500610352e+00 4.200471878051757812e+00 4.083287811279296875e+01
-1.791604638099670410e+00 4.120171546936035156e+00 4.071638107299804688e+01
-1.559404611587524414e+00 3.928971767425537109e+00 4.068227767944335938e+01
-1.307141423225402832e+00 3.781731843948364258e+00 4.061548233032226562e+01
-1.039741396903991699e+00 3.667531967163085938e+00 4.052408218383789062e+01
-8.042419552803039551e-01 3.481343507766723633e+00 4.048328018188476562e+01
-5.610259175300598145e-01 3.316423654556274414e+00 4.043101119995117188e+01
-2.252389639616012573e-01 3.354368448257446289e+00 4.022717666625976562e+01
7.054568082094192505e-02 3.301115512847900391e+00 4.008751678466796875e+01
3.498605191707611084e-01 3.210252285003662109e+00 3.997227859497070312e+01
7.427490949630737305e-01 3.481634855270385742e+00 3.978718185424804688e+01
-1.005999967455863953e-01 1.439000070095062256e-01 4.173649978637695312e+01
7.039999961853027344e-02 -1.775999963283538818e-01 4.180009841918945312e+01
2.919999957084655762e-01 -3.894999921321868896e-01 4.178189849853515625e+01
4.420000016689300537e-01 -7.558000087738037109e-01 4.187900161743164062e+01
6.230000257492065430e-01 -1.054900050163269043e+00 4.192599868774414062e+01
8.719999790191650391e-01 -1.207499980926513672e+00 4.186360168457031250e+01
1.070999979972839355e+00 -1.467499971389770508e+00 4.188140106201171875e+01
1.335399985313415527e+00 -1.587000012397766113e+00 4.179430007934570312e+01
1.546300053596496582e+00 -1.821400046348571777e+00 4.179299926757812500e+01
1.748700022697448730e+00 -2.074100017547607422e+00 4.180550003051757812e+01
1.943799972534179688e+00 -2.342099905014038086e+00 4.182939910888671875e+01
2.083600044250488281e+00 -2.728100061416625977e+00 4.194179916381835938e+01
2.155600070953369141e+00 -3.258399963378906250e+00 4.216239929199218750e+01
2.208100080490112305e+00 -3.829499959945678711e+00 4.241379928588867188e+01
2.436300039291381836e+00 -4.025499820709228516e+00 4.238410186767578125e+01
2.590300083160400391e+00 -4.379199981689453125e+00 4.247280120849609375e+01
2.882299900054931641e+00 -4.439799785614013672e+00 4.234149932861328125e+01
2.993000030517578125e+00 -4.884900093078613281e+00 4.249890136718750000e+01
3.273099899291992188e+00 -4.970699787139892578e+00 4.238650131225585938e+01
3.334599971771240234e+00 -5.519199848175048828e+00 4.262189865112304688e+01
3.506500005722045898e+00 -5.833600044250488281e+00 4.268140029907226562e+01
3.773900032043457031e+00 -5.946300029754638672e+00 4.258919906616210938e+01
3.943700075149536133e+00 -6.264900207519531250e+00 4.265190124511718750e+01
4.051099777221679688e+00 -6.714300155639648438e+00 4.281320190429687500e+01
4.278500080108642578e+00 -6.911099910736083984e+00 4.278440093994140625e+01
4.473000049591064453e+00 -7.176700115203857422e+00 4.280749893188476562e+01
4.685500144958496094e+00 -7.404600143432617188e+00 4.280220031738281250e+01
4.849699974060058594e+00 -7.733600139617919922e+00 4.287310028076171875e+01
4.991799831390380859e+00 -8.108300209045410156e+00 4.297869873046875000e+01
5.266200065612792969e+00 -8.206299781799316406e+00 4.287540054321289062e+01
5.413300037384033203e+00 -8.570300102233886719e+00 4.297290039062500000e+01
5.578899860382080078e+00 -8.895199775695800781e+00 4.304100036621093750e+01
5.755199909210205078e+00 -9.197299957275390625e+00 4.309199905395507812e+01
5.927000045776367188e+00 -9.508899688720703125e+00 4.315019989013671875e+01
6.118700027465820312e+00 -9.778499603271484375e+00 4.317679977416992188e+01
6.284500122070312500e+00 -1.010200023651123047e+01 4.324409866333007812e+01
6.548600196838378906e+00 -1.022169971466064453e+01 4.315719985961914062e+01
6.649700164794921875e+00 -1.067809963226318359e+01 4.332540130615234375e+01
6.877999782562255859e+00 -1.087170028686523438e+01 4.329449844360351562e+01
7.084199905395507812e+00 -1.111089992523193359e+01 4.329809951782226562e+01
7.281300067901611328e+00 -1.136859989166259766e+01 4.331589889526367188e+01
7.452099800109863281e+00 -1.168019962310791016e+01 4.337469863891601562e+01
7.612899780273437500e+00 -1.201189994812011719e+01 4.344869995117187500e+01
7.843999862670898438e+00 -1.219939994812011719e+01 4.341320037841796875e+01
7.976299762725830078e+00 -1.258920001983642578e+01 4.353160095214843750e+01
8.253800392150878906e+00 -1.268150043487548828e+01 4.342380142211914062e+01
8.329400062561035156e+00 -1.318640041351318359e+01 4.362990188598632812e+01
8.560099601745605469e+00 -1.337440013885498047e+01 4.359489822387695312e+01
8.761199951171875000e+00 -1.362250041961669922e+01 4.360570144653320312e+01
8.968400001525878906e+00 -1.385820007324218750e+01 4.360710144042968750e+01
9.126999855041503906e+00 -1.419239997863769531e+01 4.368360137939453125e+01
9.326999664306640625e+00 -1.444239997863769531e+01 4.369599914550781250e+01
9.496500015258789062e+00 -1.475389957427978516e+01 4.375540161132812500e+01
9.717000007629394531e+00 -1.496199989318847656e+01 4.373580169677734375e+01
9.901100158691406250e+00 -1.524390029907226562e+01 4.377259826660156250e+01
1.012310028076171875e+01 -1.544869995117187500e+01 4.375059890747070312e+01
1.027490043640136719e+01 -1.579520034790039062e+01 4.383689880371093750e+01
1.053689956665039062e+01 -1.591950035095214844e+01 4.375339889526367188e+01
1.070510005950927734e+01 -1.623259925842285156e+01 4.381430053710937500e+01
1.093179988861083984e+01 -1.642779922485351562e+01 4.378499984741210938e+01
1.108539962768554688e+01 -1.676989936828613281e+01 4.386809921264648438e+01
1.127709960937500000e+01 -1.703510093688964844e+01 4.389250183105468750e+01
1.156040000915527344e+01 -1.711689949035644531e+01 4.377640151977539062e+01
1.166390037536621094e+01 -1.755839920043945312e+01 4.393590164184570312e+01
1.191839981079101562e+01 -1.769779968261718750e+01 4.386389923095703125e+01
1.213239955902099609e+01 -1.791810035705566406e+01 4.385400009155273438e+01
1.227680015563964844e+01 -1.827680015563964844e+01 4.395029830932617188e+01
1.244839954376220703e+01 -1.858130073547363281e+01 4.400510025024414062e+01
1.264719963073730469e+01 -1.883149909973144531e+01 4.401819992065429688e+01
1.285620021820068359e+01 -1.906100082397460938e+01 4.401539993286132812e+01
1.312123680114746094e+01 -1.917687797546386719e+01 4.392389678955078125e+01
1.330823707580566406e+01 -1.945007705688476562e+01 4.395479583740234375e+01
1.351702022552490234e+01 -1.967965316772460938e+01 4.395188903808593750e+01
1.370648670196533203e+01 -1.994574546813964844e+01 4.397652053833007812e+01
1.398692893981933594e+01 -2.003312492370605469e+01 4.386370086669921875e+01
1.424832916259765625e+01 -2.015942573547363281e+01 4.378150177001953125e+01
1.466463851928710938e+01 -2.023992919921875000e+01 4.379228210449218750e+01
1.464992904663085938e+01 -2.065072441101074219e+01 4.380100250244140625e+01
1.477782917022705078e+01 -2.103912544250488281e+01 4.392100143432617188e+01
1.490216922760009766e+01 -2.143571281433105469e+01 4.404803466796875000e+01
1.512966918945312500e+01 -2.162821197509765625e+01 4.401693725585937500e+01
1.523636627197265625e+01 -2.206009292602539062e+01 4.417233657836914062e+01
1.549180030822753906e+01 -2.219989967346191406e+01 4.410139846801757812e+01
1.568799972534179688e+01 -2.245359992980957031e+01 4.411769866943359375e+01
1.589369964599609375e+01 -2.268840026855468750e+01 4.411940002441406250e+01
1.611300086975097656e+01 -2.289669990539550781e+01 4.410060119628906250e+01
1.631850051879882812e+01 -2.313190078735351562e+01 4.410260009765625000e+01
1.654080009460449219e+01 -2.333429908752441406e+01 4.407920074462890625e+01
1.670299911499023438e+01 -2.365320014953613281e+01 4.414619827270507812e+01
1.691259956359863281e+01 -2.387999916076660156e+01 4.414179992675781250e+01
1.716589927673339844e+01 -2.402230072021484375e+01 4.407180023193359375e+01
1.735169982910156250e+01 -2.429520034790039062e+01 4.410319900512695312e+01
1.760540008544921875e+01 -2.443700027465820312e+01 4.403279876708984375e+01
1.779829978942871094e+01 -2.469589996337890625e+01 4.405329895019531250e+01
1.797859954833984375e+01 -2.497890090942382812e+01 4.409270095825195312e+01
1.822760009765625000e+01 -2.512980079650878906e+01 4.402930068969726562e+01
1.843280029296875000e+01 -2.536479949951171875e+01 4.403139877319335938e+01
1.864819908142089844e+01 -2.558009910583496094e+01 4.401819992065429688e+01
1.884910011291503906e+01 -2.582320022583007812e+01 4.402650070190429688e+01
1.906270027160644531e+01 -2.604190063476562500e+01 4.401589965820312500e+01
1.929050064086914062e+01 -2.623349952697753906e+01 4.398419952392578125e+01
1.949239921569824219e+01 -2.647450065612792969e+01 4.399110031127929688e+01
1.970730018615722656e+01 -2.669059944152832031e+01 4.397850036621093750e+01
1.993630027770996094e+01 -2.687989997863769531e+01 4.394499969482421875e+01
2.015839958190917969e+01 -2.708219909667968750e+01 4.392169952392578125e+01
2.038800048828125000e+01 -2.727050018310546875e+01 4.388729858398437500e+01
2.064839935302734375e+01 -2.740049934387207031e+01 4.380739974975585938e+01
2.082769966125488281e+01 -2.768379974365234375e+01 4.384740066528320312e+01
2.105410003662109375e+01 -2.787820053100585938e+01 4.381779861450195312e+01
2.129520034790039062e+01 -2.804470062255859375e+01 4.376639938354492188e+01
2.150810050964355469e+01 -2.826449966430664062e+01 4.375680160522460938e+01
2.170280075073242188e+01 -2.851860046386718750e+01 4.377399826049804688e+01
2.195989990234375000e+01 -2.865500068664550781e+01 4.369889831542968750e+01
2.216550064086914062e+01 -2.888850021362304688e+01 4.370000076293945312e+01
2.241650009155273438e+01 -2.903660011291503906e+01 4.363410186767578125e+01
2.264920043945312500e+01 -2.921920013427734375e+01 4.359529876708984375e+01
2.296400070190429688e+01 -2.924839973449707031e+01 4.343579864501953125e+01
2.310860061645507812e+01 -2.959589958190917969e+01 4.352650070190429688e+01
2.331739997863769531e+01 -2.982329940795898438e+01 4.352289962768554688e+01
2.359650039672851562e+01 -2.991950035095214844e+01 4.341590118408203125e+01
2.380830001831054688e+01 -3.014130020141601562e+01 4.340779876708984375e+01
2.406789970397949219e+01 -3.027420043945312500e+01 4.332979965209960938e+01
2.433410072326660156e+01 -3.039489936828613281e+01 4.324200057983398438e+01
2.456529998779296875e+01 -3.058079910278320312e+01 4.320550155639648438e+01
2.475489997863769531e+01 -3.084390068054199219e+01 4.322999954223632812e+01
2.499679946899414062e+01 -3.100989913940429688e+01 4.317789840698242188e+01
2.523679924011230469e+01 -3.117959976196289062e+01 4.312870025634765625e+01
2.545059967041015625e+01 -3.139780044555664062e+01 4.311759948730468750e+01
2.567650032043457031e+01 -3.159350013732910156e+01 4.308890151977539062e+01
2.589480018615722656e+01 -3.180340003967285156e+01 4.307139968872070312e+01
2.615430068969726562e+01 -3.193720054626464844e+01 4.299369812011718750e+01
2.642390060424804688e+01 -3.205289840698242188e+01 4.290169906616210938e+01
2.670009994506835938e+01 -3.215650177001953125e+01 4.279999923706054688e+01
2.689690017700195312e+01 -3.240610122680664062e+01 4.281380081176757812e+01
2.715430068969726562e+01 -3.254460144042968750e+01 4.273960113525390625e+01
2.737030029296875000e+01 -3.275859832763671875e+01 4.272539901733398438e+01
2.762549972534179688e+01 -3.290140151977539062e+01 4.265449905395507812e+01
2.791570091247558594e+01 -3.298030090332031250e+01 4.253300094604492188e+01
2.811790084838867188e+01 -3.322000122070312500e+01 4.253889846801757812e+01
2.839809989929199219e+01 -3.331760025024414062e+01 4.243209838867187500e+01
2.864080047607421875e+01 -3.348339843750000000e+01 4.237950134277343750e+01
2.887849998474121094e+01 -3.365850067138671875e+01 4.233409881591796875e+01
2.914119911193847656e+01 -3.378850173950195312e+01 4.225279998779296875e+01
2.937269973754882812e+01 -3.397499847412109375e+01 4.221649932861328125e+01
2.965530014038085938e+01 -3.406919860839843750e+01 4.210660171508789062e+01
2.989500045776367188e+01 -3.424119949340820312e+01 4.205870056152343750e+01
3.011949920654296875e+01 -3.444060134887695312e+01 4.203250122070312500e+01
3.034539985656738281e+01 -3.463750076293945312e+01 4.200439834594726562e+01
3.062549972534179688e+01 -3.473690032958984375e+01 4.189849853515625000e+01
3.087709999084472656e+01 -3.488759994506835938e+01 4.183349990844726562e+01
3.111829948425292969e+01 -3.505739974975585938e+01 4.178359985351562500e+01
3.142300033569335938e+01 -3.511330032348632812e+01 4.164270019531250000e+01
3.159519958496093750e+01 -3.540670013427734375e+01 4.169150161743164062e+01
3.189270019531250000e+01 -3.547600173950195312e+01 4.156129837036132812e+01
3.213570022583007812e+01 -3.564279937744140625e+01 4.150889968872070312e+01
3.245589828491210938e+01 -3.567190170288085938e+01 4.134625625610351562e+01
3.259789657592773438e+01 -3.601910018920898438e+01 4.143815994262695312e+01
3.297209167480468750e+01 -3.595029830932617188e+01 4.119732284545898438e+01
3.317401504516601562e+01 -3.619028091430664062e+01 4.120303726196289062e+01
3.347551727294921875e+01 -3.625388336181640625e+01 4.106773757934570312e+01
3.366405868530273438e+01 -3.651748275756835938e+01 4.109251403808593750e+01
3.393905639648437500e+01 -3.662848281860351562e+01 4.099511337280273438e+01
3.420675659179687500e+01 -3.675248336791992188e+01 4.090811538696289062e+01
3.456921768188476562e+01 -3.670928192138671875e+01 4.068671417236328125e+01
3.476132583618164062e+01 -3.696888351440429688e+01 4.070787811279296875e+01
3.504996490478515625e+01 -3.705648040771484375e+01 4.059136199951171875e+01
3.529156494140625000e+01 -3.722738265991210938e+01 4.054176330566406250e+01
3.562976455688476562e+01 -3.722960281372070312e+01 4.035657501220703125e+01
3.582356643676757812e+01 -3.748462295532226562e+01 4.037477493286132812e+01
3.610735321044921875e+01 -3.758262252807617188e+01 4.026647949218750000e+01
3.634705352783203125e+01 -3.775780487060546875e+01 4.021977615356445312e+01
3.664803695678710938e+01 -3.782276153564453125e+01 4.008488082885742188e+01
3.695529556274414062e+01 -3.788121032714843750e+01 3.994380187988281250e+01
3.713429641723632812e+01 -3.816231155395507812e+01 3.998279953002929688e+01
3.749229812622070312e+01 -3.813125610351562500e+01 3.976970291137695312e+01
3.773589706420898438e+01 -3.829995346069335938e+01 3.971800231933593750e+01
3.800783157348632812e+01 -3.841854476928710938e+01 3.962549972534179688e+01
3.826803207397460938e+01 -3.855900192260742188e+01 3.955049896240234375e+01
3.845273208618164062e+01 -3.882951736450195312e+01 3.958139801025390625e+01
3.875506210327148438e+01 -3.889846420288085938e+01 3.944861602783203125e+01
3.913203811645507812e+01 -3.883576965332031250e+01 3.920817184448242188e+01
3.940363693237304688e+01 -3.895700073242187500e+01 3.911746978759765625e+01
3.970156478881835938e+01 -3.903487777709960938e+01 3.899108886718750000e+01
3.993466567993164062e+01 -3.922288131713867188e+01 3.895458984375000000e+01
4.025996398925781250e+01 -3.925248336791992188e+01 3.878918838500976562e+01
4.058096313476562500e+01 -3.928950500488281250e+01 3.863008880615234375e+01
4.077442932128906250e+01 -3.954745864868164062e+01 3.865108871459960938e+01
4.099862670898437500e+01 -3.975115966796875000e+01 3.862718582153320312e+01
4.188962936401367188e+01 -3.998678588867187500e+01 3.824959564208984375e+01
4.227968215942382812e+01 -3.990593338012695312e+01 3.799469757080078125e+01
4.242761993408203125e+01 -4.024126434326171875e+01 3.808009338378906250e+01
4.280192184448242188e+01 -4.018986511230468750e+01 3.784809494018554688e+01
4.313822174072265625e+01 -4.020376586914062500e+01 3.766909408569335938e+01
4.340572357177734375e+01 -4.033506393432617188e+01 3.758569335937500000e+01
4.367152023315429688e+01 -4.047004699707031250e+01 3.750479507446289062e+01
4.394287109375000000e+01 -4.059548187255859375e+01 3.741688919067382812e+01
4.532550048828125000e+01 -4.118457412719726562e+01 3.693949890136718750e+01
4.560889816284179688e+01 -4.129057693481445312e+01 3.683480072021484375e+01
4.579550170898437500e+01 -4.155920410156250000e+01 3.686360168457031250e+01
4.619699859619140625e+01 -4.146757507324218750e+01 3.659669876098632812e+01
4.702379989624023438e+01 -4.182535552978515625e+01 3.631650161743164062e+01
4.731930160522460938e+01 -4.191197204589843750e+01 3.619599914550781250e+01
4.775680160522460938e+01 -4.176237487792968750e+01 3.588090133666992188e+01
4.794079971313476562e+01 -4.203657531738281250e+01 3.591370010375976562e+01
-1.068216133117675781e+01 3.385622406005859375e+01 3.062738227844238281e+01
-1.084239959716796875e+01 3.270204925537109375e+01 3.128261184692382812e+01
-1.065877342224121094e+01 3.237289428710937500e+01 3.134342384338378906e+01
-1.036647319793701172e+01 3.230679702758789062e+01 3.121462440490722656e+01
-1.032947349548339844e+01 3.162849807739257812e+01 3.152762413024902344e+01
-1.017867374420166016e+01 3.122379684448242188e+01 3.164332389831542969e+01
-1.008992958068847656e+01 3.067326736450195312e+01 3.186439895629882812e+01
-9.794229507446289062e+00 3.061566543579101562e+01 3.172959899902343750e+01
-9.644507408142089844e+00 3.021380233764648438e+01 3.184363555908203125e+01
-9.744211196899414062e+00 2.921480560302734375e+01 3.238983535766601562e+01
-9.548072814941406250e+00 2.892040824890136719e+01 3.242596054077148438e+01
-9.350121498107910156e+00 2.863135528564453125e+01 3.245759963989257812e+01
-9.196599006652832031e+00 2.783938598632812500e+01 3.283963012695312500e+01
-9.008918762207031250e+00 2.792478179931640625e+01 3.261266326904296875e+01
-9.049646377563476562e+00 2.707174491882324219e+01 3.305490875244140625e+01
-9.143000602722167969e+00 2.609802055358886719e+01 3.358578109741210938e+01
-8.966176033020019531e+00 2.576231002807617188e+01 3.365373611450195312e+01
-8.668075561523437500e+00 2.571190834045410156e+01 3.351403808593750000e+01
-8.520994186401367188e+00 2.530604553222656250e+01 3.363145828247070312e+01
-8.389844894409179688e+00 2.485970115661621094e+01 3.377804183959960938e+01
-8.375978469848632812e+00 2.414450836181640625e+01 3.412157058715820312e+01
-8.310204505920410156e+00 2.355037307739257812e+01 3.437787628173828125e+01
-8.335373878479003906e+00 2.276502609252929688e+01 3.477851104736328125e+01
-8.199249267578125000e+00 2.234120750427246094e+01 3.491028213500976562e+01
-7.910537719726562500e+00 2.227474784851074219e+01 3.478545379638671875e+01
-7.672174453735351562e+00 2.208226013183593750e+01 3.475240325927734375e+01
-7.781163692474365234e+00 2.108608818054199219e+01 3.530496978759765625e+01
-7.794684886932373047e+00 2.033413887023925781e+01 3.561831283569335938e+01
-7.638872146606445312e+00 1.988148498535156250e+01 3.577231597900390625e+01
-7.540208816528320312e+00 1.943253326416015625e+01 3.599095535278320312e+01
-7.148707389831542969e+00 1.959861755371093750e+01 3.569172668457031250e+01
-7.310278892517089844e+00 1.847958183288574219e+01 3.632280349731445312e+01
-7.113354206085205078e+00 1.819849395751953125e+01 3.635401916503906250e+01
-7.174468040466308594e+00 1.730643463134765625e+01 3.676012802124023438e+01
-6.932855129241943359e+00 1.712466430664062500e+01 3.678449630737304688e+01
-6.741112709045410156e+00 1.682935333251953125e+01 3.682382965087890625e+01
-6.522881031036376953e+00 1.659645271301269531e+01 3.681811523437500000e+01
-6.268616676330566406e+00 1.644522094726562500e+01 3.675434875488281250e+01
-6.054749488830566406e+00 1.620422935485839844e+01 3.675455856323242188e+01
-5.842984199523925781e+00 1.595842933654785156e+01 3.675944137573242188e+01
-7.377061367034912109e+00 1.028909873962402344e+01 4.038679504394531250e+01
